ply
format ascii 1.0
element vertex 1066
property float x
property float y
property float z
property float nx
property float ny
property float nz
property uchar red
property uchar green
property uchar blue
element face 0
end_header
-0.00015 0.04236 0.39312 1.0 1.0 -0.0 255 0 0
0.0016 0.04204 0.39293 0.0 -1.0 0.0 255 0 0
-0.00228 0.04044 0.39311 1.0 0.0 1.0 255 0 0
-0.00228 0.04117 0.39344 1.0 -0.0 1.0 255 0 0
-0.00182 0.04156 0.39339 0.0 -0.0 1.0 255 0 0
-0.00093 0.03924 0.39355 0.0 1.0 1.0 255 0 0
-0.00171 0.0423 0.39398 0.0 -1.0 0.0 255 0 0
0.00053 0.0422 0.39338 0.0 1.0 -0.0 255 0 0
0.00025 0.0422 0.39392 0.0 1.0 0.0 255 0 0
-0.00287 0.03993 0.39407 1.0 0.0 1.0 255 0 0
-0.00281 0.04105 0.39376 1.0 -0.0 1.0 255 0 0
-0.00252 0.04148 0.39377 1.0 -0.0 1.0 255 0 0
0.00109 0.04179 0.39419 0.0 1.0 0.0 255 0 0
0.0001 0.03886 0.39383 0.0 1.0 0.0 255 0 0
-0.00085 0.04244 0.39364 1.0 1.0 0.0 255 0 0
0.00077 0.03862 0.3938 0.0 1.0 -0.0 255 0 0
-0.00271 0.04014 0.39368 1.0 0.0 1.0 255 0 0
0.00157 0.04181 0.39361 0.0 1.0 0.0 255 0 0
-0.00128 0.03905 0.39385 0.0 1.0 0.0 255 0 0
-0.00138 0.03889 0.39435 0.0 1.0 0.0 255 0 0
-0.00025 0.04237 0.39389 0.0 1.0 -0.0 255 0 0
-0.00302 0.04062 0.39397 1.0 0.0 1.0 255 0 0
-0.0032 0.04102 0.3942 1.0 -0.0 1.0 255 0 0
-0.00177 0.03924 0.39374 0.0 1.0 0.0 255 0 0
-0.0025 0.03957 0.39409 1.0 1.0 0.0 255 0 0
0.00072 0.04198 0.39399 0.0 1.0 0.0 255 0 0
-0.00152 0.04257 0.39452 0.0 -1.0 0.0 255 0 0
0.00049 0.03893 0.39432 0.0 1.0 -0.0 255 0 0
-0.00287 0.04204 0.39452 0.0 -0.0 1.0 255 0 0
-0.0018 0.03892 0.39511 0.0 1.0 -0.0 255 0 0
-0.00037 0.0389 0.39418 0.0 1.0 0.0 255 0 0
-0.0013 0.04243 0.394 0.0 -1.0 0.0 255 0 0
-0.00082 0.04257 0.39467 0.0 1.0 -0.0 255 0 0
-0.0022 0.03927 0.3943 1.0 1.0 0.0 255 0 0
-0.00262 0.04179 0.3941 1.0 -0.0 1.0 255 0 0
-0.00315 0.04163 0.39446 1.0 -0.0 1.0 255 0 0
-0.00238 0.04225 0.39436 0.0 -1.0 1.0 255 0 0
-0.00329 0.0405 0.3944 1.0 0.0 1.0 255 0 0
-0.00289 0.03962 0.39473 1.0 1.0 0.0 255 0 0
0.00044 0.04207 0.39439 0.0 1.0 0.0 255 0 0
-0.00178 0.03892 0.39461 0.0 1.0 0.0 255 0 0
0.00154 0.04166 0.39439 0.0 1.0 1.0 255 0 0
-0.00031 0.04242 0.39454 0.0 1.0 0.0 255 0 0
0.00093 0.03898 0.39452 0.0 1.0 -0.0 255 0 0
-0.00215 0.04024 0.3973 0.0 -1.0 0.0 255 0 0
0.0 0.03893 0.39447 0.0 1.0 -0.0 255 0 0
-0.00073 0.03889 0.39453 0.0 -1.0 0.0 255 0 0
-0.00318 0.04001 0.39457 1.0 0.0 0.0 255 0 0
0.00089 0.03943 0.39509 0.0 -1.0 1.0 255 0 0
-0.00244 0.04256 0.39473 0.0 -1.0 1.0 255 0 0
-0.00179 0.04279 0.39486 0.0 1.0 -0.0 255 0 0
-0.00133 0.03887 0.39485 0.0 1.0 -0.0 255 0 0
-0.00368 0.04145 0.39501 1.0 0.0 1.0 255 0 0
-0.00245 0.03928 0.39475 1.0 1.0 0.0 255 0 0
-0.00334 0.04208 0.39485 0.0 -0.0 1.0 255 0 0
-0.00295 0.04251 0.39486 0.0 -0.0 1.0 255 0 0
-0.00123 0.04271 0.39487 0.0 1.0 -0.0 255 0 0
0.00152 0.04146 0.39485 0.0 1.0 1.0 255 0 0
-0.0006 0.03892 0.39503 0.0 -1.0 0.0 255 0 0
-0.00021 0.03909 0.3953 0.0 -1.0 1.0 255 0 0
-0.0035 0.04043 0.39478 1.0 0.0 0.0 255 0 0
-0.0027 0.04302 0.39496 0.0 -1.0 1.0 255 0 0
-0.00216 0.03985 0.39703 0.0 1.0 -0.0 255 0 0
-0.00109 0.04041 0.3969 1.0 -0.0 1.0 255 0 0
-0.00117 0.04168 0.39718 1.0 -0.0 0.0 255 0 0
0.00042 0.03922 0.39501 0.0 -1.0 1.0 255 0 0
-0.00143 0.0409 0.39721 1.0 -0.0 1.0 255 0 0
-0.00226 0.04316 0.39513 0.0 1.0 -1.0 255 0 0
-0.00348 0.04017 0.39517 1.0 1.0 0.0 255 0 0
-0.00358 0.04095 0.39484 1.0 0.0 0.0 255 0 0
-0.00143 0.04287 0.39691 1.0 0.0 0.0 255 0 0
-0.00101 0.04119 0.39701 1.0 0.0 1.0 255 0 0
0.00201 0.04117 0.3951 0.0 0.0 1.0 255 0 0
-0.00319 0.03975 0.39507 1.0 1.0 0.0 255 0 0
9e-05 0.04197 0.39512 0.0 1.0 0.0 255 0 0
-0.00322 0.04322 0.39497 0.0 0.0 -1.0 255 0 0
-0.00313 0.04039 0.39678 1.0 1.0 -0.0 255 0 0
-0.00102 0.04206 0.39694 1.0 0.0 0.0 255 0 0
-0.00272 0.03934 0.3954 1.0 1.0 -0.0 255 0 0
-0.00156 0.03905 0.39547 0.0 1.0 -0.0 255 0 0
-0.00171 0.04033 0.39716 0.0 -1.0 0.0 255 0 0
-0.00375 0.04075 0.39683 1.0 1.0 -0.0 255 0 0
0.00067 0.04164 0.39483 0.0 1.0 1.0 255 0 0
-0.00136 0.04004 0.39691 0.0 -1.0 0.0 255 0 0
-0.00233 0.03968 0.39664 0.0 1.0 -0.0 255 0 0
-0.00043 0.04239 0.39536 1.0 1.0 0.0 255 0 0
0.00044 0.04143 0.39517 0.0 1.0 1.0 255 0 0
0.00113 0.04133 0.39508 0.0 1.0 1.0 255 0 0
0.0016 0.04105 0.39524 0.0 0.0 1.0 255 0 0
-0.00124 0.04296 0.39642 1.0 1.0 -0.0 255 0 0
-0.00178 0.0432 0.39542 0.0 1.0 -0.0 255 0 0
-0.00071 0.04117 0.39663 1.0 0.0 1.0 255 0 0
-0.00067 0.04035 0.3966 1.0 -0.0 1.0 255 0 0
0.00166 0.0405 0.3954 0.0 0.0 1.0 255 0 0
-0.00094 0.03983 0.39654 0.0 -1.0 1.0 255 0 0
-0.00138 0.03949 0.39654 0.0 -1.0 0.0 255 0 0
-0.00276 0.0402 0.39691 0.0 1.0 -0.0 255 0 0
-0.00115 0.04249 0.39684 1.0 0.0 0.0 255 0 0
-0.00083 0.04179 0.39648 1.0 0.0 0.0 255 0 0
0.00065 0.04068 0.39557 0.0 0.0 1.0 255 0 0
0.00105 0.04018 0.39539 0.0 -0.0 1.0 255 0 0
-0.00373 0.04072 0.39536 1.0 0.0 0.0 255 0 0
0.00119 0.04064 0.39542 0.0 0.0 1.0 255 0 0
-0.00296 0.04003 0.3965 0.0 1.0 -0.0 255 0 0
-0.00077 0.04269 0.39558 1.0 1.0 0.0 255 0 0
-0.00411 0.0421 0.39531 0.0 0.0 1.0 255 0 0
-0.00321 0.03984 0.39592 1.0 1.0 -0.0 255 0 0
-0.0019 0.03956 0.39676 0.0 1.0 -0.0 255 0 0
-0.00278 0.03965 0.39622 0.0 1.0 -0.0 255 0 0
0.00014 0.03939 0.39547 0.0 -1.0 1.0 255 0 0
-0.00068 0.03903 0.39553 0.0 -1.0 0.0 255 0 0
0.00028 0.03991 0.39556 0.0 -0.0 1.0 255 0 0
-9e-05 0.04157 0.39543 1.0 1.0 1.0 255 0 0
-0.00428 0.04142 0.3962 1.0 1.0 0.0 255 0 0
-0.00168 0.04332 0.39588 1.0 1.0 -0.0 255 0 0
-0.00207 0.04354 0.3958 0.0 1.0 -0.0 255 0 0
0.00017 0.04114 0.39556 1.0 0.0 1.0 255 0 0
-0.00079 0.04222 0.39614 1.0 1.0 0.0 255 0 0
-0.00266 0.04371 0.39556 0.0 1.0 -1.0 255 0 0
-0.0038 0.04069 0.39635 1.0 1.0 -0.0 255 0 0
-0.00132 0.04303 0.39559 1.0 1.0 -0.0 255 0 0
-0.00037 0.0413 0.39608 1.0 0.0 1.0 255 0 0
-0.00037 0.04056 0.39627 1.0 -0.0 1.0 255 0 0
-0.00042 0.04001 0.39629 1.0 -0.0 1.0 255 0 0
-0.00228 0.03912 0.39536 0.0 1.0 -0.0 255 0 0
-0.00037 0.04165 0.39577 1.0 0.0 1.0 255 0 0
-0.00183 0.04348 0.39627 1.0 1.0 -0.0 255 0 0
-0.00052 0.03938 0.39595 0.0 -1.0 1.0 255 0 0
-0.00138 0.03923 0.39596 0.0 -1.0 0.0 255 0 0
-7e-05 0.03982 0.39587 1.0 -0.0 1.0 255 0 0
-0.0005 0.04213 0.39573 1.0 1.0 0.0 255 0 0
-0.00373 0.04054 0.39585 1.0 1.0 -0.0 255 0 0
-0.00336 0.04017 0.3963 1.0 1.0 -0.0 255 0 0
-0.00215 0.03936 0.39601 0.0 1.0 -0.0 255 0 0
-0.00421 0.04164 0.39574 1.0 1.0 0.0 255 0 0
-0.00012 0.04081 0.39588 1.0 0.0 1.0 255 0 0
0.00058 0.04469 0.40253 0.0 -1.0 -1.0 255 0 0
0.00011 0.04456 0.40277 0.0 1.0 -0.0 255 0 0
0.00056 0.04428 0.40273 0.0 -1.0 0.0 255 0 0
-0.00014 0.04489 0.40234 0.0 -1.0 -1.0 255 0 0
-0.00076 0.04498 0.40241 0.0 -1.0 -1.0 255 0 0
0.00107 0.04456 0.40256 0.0 -1.0 -0.0 255 0 0
0.0022 0.04451 0.40221 0.0 -1.0 -0.0 255 0 0
0.00133 0.04468 0.40217 0.0 -1.0 -0.0 255 0 0
-0.00107 0.04481 0.402 0.0 -1.0 -1.0 255 0 0
0.00014 0.04439 0.4022 0.0 1.0 -0.0 255 0 0
0.00146 0.04416 0.40245 0.0 -1.0 0.0 255 0 0
0.0008 0.04471 0.40202 0.0 -1.0 -0.0 255 0 0
0.00094 0.04411 0.4023 0.0 -1.0 0.0 255 0 0
-0.00031 0.04442 0.40196 0.0 1.0 -0.0 255 0 0
0.00016 0.04391 0.40186 0.0 1.0 -0.0 255 0 0
0.00214 0.04501 0.40195 0.0 1.0 1.0 255 0 0
0.00172 0.04518 0.40183 0.0 1.0 1.0 255 0 0
-0.00015 0.04361 0.40138 0.0 1.0 -0.0 255 0 0
-0.00104 0.04491 0.40147 0.0 -1.0 -0.0 255 0 0
0.00218 0.04537 0.40167 0.0 1.0 1.0 255 0 0
0.00111 0.04407 0.40163 0.0 -1.0 -0.0 255 0 0
0.00125 0.04513 0.40172 0.0 -1.0 -1.0 255 0 0
-0.00132 0.04514 0.40171 0.0 -1.0 -1.0 255 0 0
0.00142 0.04557 0.4016 0.0 -1.0 -1.0 255 0 0
-0.00091 0.044 0.40122 0.0 1.0 -1.0 255 0 0
0.00054 0.04528 0.4014 0.0 -1.0 -1.0 255 0 0
0.0005 0.04472 0.40167 1.0 -1.0 -0.0 255 0 0
0.00077 0.04576 0.40137 0.0 -1.0 -1.0 255 0 0
0.00022 0.04488 0.40131 0.0 -1.0 -1.0 255 0 0
-0.00057 0.04419 0.40155 0.0 1.0 -0.0 255 0 0
-0.00111 0.04445 0.40161 1.0 1.0 -1.0 255 0 0
0.00207 0.04437 0.40157 0.0 -1.0 -0.0 255 0 0
0.00243 0.04537 0.4012 0.0 -1.0 -1.0 255 0 0
-0.00055 0.04457 0.40127 1.0 1.0 1.0 255 0 0
-0.00149 0.04462 0.4013 1.0 0.0 -1.0 255 0 0
-0.00026 0.04507 0.40109 0.0 1.0 1.0 255 0 0
0.00191 0.04607 0.4012 0.0 -0.0 -1.0 255 0 0
-0.00166 0.04529 0.40092 1.0 -1.0 -0.0 255 0 0
0.0024 0.04467 0.40161 0.0 -1.0 -1.0 255 0 0
0.00184 0.04461 0.40102 0.0 -1.0 -1.0 255 0 0
0.00162 0.04431 0.40128 0.0 -1.0 -0.0 255 0 0
0.00069 0.04396 0.40119 0.0 -1.0 -0.0 255 0 0
0.00028 0.04374 0.40118 0.0 -1.0 -0.0 255 0 0
0.00221 0.04557 0.40077 0.0 -0.0 -1.0 255 0 0
5e-05 0.04538 0.40116 0.0 -1.0 -1.0 255 0 0
-0.00093 0.04507 0.40098 0.0 -1.0 -1.0 255 0 0
0.00148 0.04628 0.4011 0.0 -0.0 -1.0 255 0 0
0.00013 0.04593 0.40105 0.0 -1.0 -1.0 255 0 0
-0.00029 0.04571 0.40101 0.0 -1.0 -1.0 255 0 0
0.00064 0.0462 0.40103 0.0 -0.0 -1.0 255 0 0
0.00215 0.04504 0.40092 0.0 -0.0 -1.0 255 0 0
0.00113 0.04432 0.40098 0.0 -1.0 -1.0 255 0 0
0.00194 0.04594 0.40059 0.0 -0.0 -1.0 255 0 0
0.00056 0.04456 0.40066 0.0 -0.0 -1.0 255 0 0
0.00129 0.0463 0.40064 0.0 -0.0 -1.0 255 0 0
0.00051 0.04622 0.40057 0.0 -0.0 -1.0 255 0 0
0.00062 0.04499 0.40061 0.0 -0.0 -1.0 255 0 0
-9e-05 0.04371 0.40082 0.0 -1.0 -0.0 255 0 0
-0.00043 0.04403 0.40032 1.0 -0.0 -1.0 255 0 0
-0.0016 0.04425 0.40094 1.0 0.0 -1.0 255 0 0
-0.00092 0.04551 0.40081 0.0 -1.0 -0.0 255 0 0
0.00031 0.04552 0.40077 0.0 -0.0 -1.0 255 0 0
0.00081 0.04546 0.40056 0.0 -0.0 -1.0 255 0 0
0.00159 0.04508 0.40062 0.0 -0.0 -1.0 255 0 0
0.00134 0.04472 0.40074 0.0 -0.0 -1.0 255 0 0
0.0004 0.04411 0.40085 0.0 -1.0 -1.0 255 0 0
-0.00059 0.04356 0.4006 0.0 1.0 -1.0 255 0 0
0.00142 0.04568 0.40048 0.0 -0.0 -1.0 255 0 0
-0.0019 0.04498 0.40064 1.0 -1.0 -0.0 255 0 0
-0.00139 0.0438 0.40072 0.0 1.0 -1.0 255 0 0
-0.00047 0.04546 0.40061 0.0 -0.0 1.0 255 0 0
-0.00077 0.04507 0.40042 0.0 -1.0 0.0 255 0 0
-1e-05 0.04517 0.40064 0.0 0.0 -1.0 255 0 0
-0.00033 0.04605 0.40058 0.0 -0.0 1.0 255 0 0
-0.00024 0.0448 0.40043 0.0 0.0 -1.0 255 0 0
4e-05 0.04435 0.40047 0.0 -0.0 -1.0 255 0 0
-0.00078 0.04451 0.4 1.0 0.0 -1.0 255 0 0
-0.00209 0.04467 0.40039 1.0 -0.0 -0.0 255 0 0
-0.00106 0.0442 0.39965 1.0 1.0 -0.0 255 0 0
-0.0015 0.04529 0.40029 1.0 -1.0 -0.0 255 0 0
-0.00215 0.04499 0.40006 1.0 -1.0 -0.0 255 0 0
-0.0017 0.04512 0.39984 0.0 -1.0 0.0 255 0 0
-0.0013 0.04472 0.39955 0.0 1.0 -0.0 255 0 0
0.00195 0.04056 0.3921 0.0 0.0 -1.0 255 0 0
0.00219 0.03837 0.39214 1.0 -0.0 1.0 255 0 0
0.00436 0.04092 0.39195 0.0 -1.0 1.0 255 0 0
0.00096 0.03987 0.39216 0.0 0.0 1.0 255 0 0
0.00117 0.03854 0.39269 1.0 0.0 0.0 255 0 0
0.00129 0.04019 0.39202 0.0 -0.0 1.0 255 0 0
0.00241 0.03954 0.39216 0.0 -0.0 1.0 255 0 0
0.0014 0.04063 0.39206 0.0 -0.0 1.0 255 0 0
0.00236 0.04025 0.39185 0.0 -0.0 1.0 255 0 0
0.00321 0.03971 0.39194 0.0 -1.0 1.0 255 0 0
0.0017 0.03909 0.39181 1.0 -0.0 1.0 255 0 0
0.00569 0.04137 0.39207 0.0 -0.0 1.0 255 0 0
0.0025 0.03964 0.39272 1.0 -1.0 -0.0 255 0 0
0.00466 0.04021 0.39189 0.0 -1.0 1.0 255 0 0
0.0067 0.04297 0.39195 1.0 -0.0 1.0 255 0 0
0.00238 0.03756 0.39192 1.0 0.0 1.0 255 0 0
0.00625 0.04294 0.39186 1.0 -0.0 1.0 255 0 0
0.00264 0.03925 0.39193 0.0 -0.0 1.0 255 0 0
0.00503 0.04098 0.39219 0.0 -0.0 1.0 255 0 0
0.00398 0.04129 0.39255 0.0 -0.0 1.0 255 0 0
0.00158 0.03686 0.39209 1.0 -0.0 1.0 255 0 0
0.00386 0.04086 0.3921 0.0 -1.0 1.0 255 0 0
0.00583 0.04201 0.39209 1.0 -0.0 1.0 255 0 0
0.00652 0.04221 0.39189 0.0 -0.0 1.0 255 0 0
0.00367 0.03995 0.39199 0.0 -1.0 1.0 255 0 0
0.00528 0.04141 0.39189 0.0 -0.0 1.0 255 0 0
0.00265 0.03842 0.39176 1.0 -0.0 1.0 255 0 0
0.0016 0.0387 0.39199 1.0 0.0 1.0 255 0 0
0.00135 0.03938 0.39208 0.0 0.0 1.0 255 0 0
0.00505 0.0405 0.39194 0.0 -1.0 1.0 255 0 0
0.00163 0.03774 0.39197 1.0 0.0 1.0 255 0 0
0.00182 0.03606 0.39161 1.0 -0.0 1.0 255 0 0
0.00617 0.04188 0.39183 1.0 -0.0 1.0 255 0 0
0.00615 0.04135 0.39182 0.0 -0.0 1.0 255 0 0
0.00218 0.03667 0.39189 1.0 -0.0 1.0 255 0 0
0.00235 0.03712 0.39182 1.0 -0.0 1.0 255 0 0
0.00184 0.03559 0.39174 1.0 -0.0 1.0 255 0 0
0.00802 0.04418 0.39122 1.0 -0.0 1.0 255 0 0
0.00396 0.04047 0.39168 0.0 -1.0 1.0 255 0 0
0.00314 0.04027 0.39171 0.0 -1.0 1.0 255 0 0
0.00705 0.04316 0.39171 1.0 -0.0 1.0 255 0 0
0.00142 0.03759 0.39236 1.0 -0.0 0.0 255 0 0
0.00605 0.0424 0.39181 0.0 -0.0 1.0 255 0 0
0.00327 0.04028 0.39256 1.0 -1.0 0.0 255 0 0
0.00252 0.04055 0.39213 0.0 1.0 -1.0 255 0 0
0.00192 0.04006 0.39182 0.0 -0.0 1.0 255 0 0
0.00583 0.04091 0.39179 0.0 -0.0 1.0 255 0 0
0.00182 0.0396 0.39172 0.0 -0.0 1.0 255 0 0
0.00174 0.03824 0.39186 1.0 0.0 1.0 255 0 0
0.00485 0.04147 0.39221 0.0 -0.0 1.0 255 0 0
0.00428 0.04039 0.39217 0.0 -1.0 1.0 255 0 0
0.00133 0.03817 0.39238 1.0 0.0 0.0 255 0 0
0.0035 0.03923 0.39158 0.0 -0.0 1.0 255 0 0
0.00501 0.04217 0.39238 0.0 -1.0 1.0 255 0 0
0.00346 0.03869 0.39143 0.0 -0.0 1.0 255 0 0
0.00536 0.041 0.39153 0.0 -1.0 1.0 255 0 0
0.00198 0.0378 0.39155 1.0 0.0 1.0 255 0 0
0.00185 0.03703 0.39167 1.0 -0.0 1.0 255 0 0
0.00545 0.0422 0.39241 1.0 -0.0 1.0 255 0 0
0.00661 0.04171 0.39165 1.0 -0.0 1.0 255 0 0
0.00703 0.0424 0.39165 1.0 -0.0 1.0 255 0 0
0.00745 0.04369 0.39146 0.0 -0.0 1.0 255 0 0
0.01 0.03247 0.38212 1.0 -1.0 0.0 255 0 0
0.0021 0.03917 0.39153 0.0 -0.0 1.0 255 0 0
0.00418 0.03969 0.39166 0.0 -1.0 1.0 255 0 0
0.00383 0.03902 0.3914 0.0 -0.0 1.0 255 0 0
0.00243 0.0396 0.39146 0.0 -0.0 1.0 255 0 0
0.00202 0.03856 0.39156 1.0 -0.0 1.0 255 0 0
0.00755 0.04303 0.39155 0.0 -0.0 1.0 255 0 0
0.00272 0.0373 0.39155 1.0 -0.0 1.0 255 0 0
0.00359 0.04108 0.39245 0.0 -1.0 1.0 255 0 0
0.00372 0.0404 0.3924 0.0 -1.0 1.0 255 0 0
0.0029 0.03803 0.39157 0.0 -0.0 1.0 255 0 0
0.00457 0.04143 0.39269 0.0 -1.0 1.0 255 0 0
0.00239 0.0363 0.39153 1.0 -0.0 1.0 255 0 0
0.00219 0.03739 0.39128 1.0 -0.0 1.0 255 0 0
0.00274 0.04003 0.39159 0.0 -1.0 1.0 255 0 0
0.00291 0.03962 0.3913 0.0 -0.0 1.0 255 0 0
0.00431 0.04086 0.39251 0.0 -1.0 1.0 255 0 0
0.00553 0.04041 0.39167 0.0 -1.0 1.0 255 0 0
0.00502 0.0401 0.39165 0.0 -1.0 1.0 255 0 0
0.00467 0.04048 0.39145 0.0 -1.0 1.0 255 0 0
0.00464 0.03958 0.39142 0.0 -1.0 1.0 255 0 0
0.00179 0.03866 0.39275 1.0 -1.0 0.0 255 0 0
0.0026 0.03675 0.39149 1.0 -0.0 1.0 255 0 0
0.01187 0.03478 0.3817 1.0 -1.0 0.0 255 0 0
0.01156 0.03443 0.38169 1.0 -1.0 0.0 255 0 0
0.00318 0.03715 0.39128 1.0 -0.0 1.0 255 0 0
0.00287 0.04086 0.39254 0.0 0.0 -1.0 255 0 0
0.01216 0.03513 0.38175 1.0 -1.0 0.0 255 0 0
0.0085 0.04425 0.39111 1.0 -0.0 1.0 255 0 0
0.00791 0.04376 0.39142 0.0 -0.0 1.0 255 0 0
0.0125 0.03574 0.38197 1.0 -0.0 0.0 255 0 0
0.01086 0.03366 0.38183 1.0 -1.0 0.0 255 0 0
0.00393 0.03997 0.39128 0.0 -0.0 1.0 255 0 0
0.00336 0.03994 0.39139 0.0 -1.0 1.0 255 0 0
0.00665 0.04109 0.3914 0.0 -0.0 1.0 255 0 0
0.01053 0.03329 0.38195 1.0 -1.0 0.0 255 0 0
0.01257 0.0366 0.38232 1.0 -0.0 0.0 255 0 0
0.01265 0.03618 0.38198 1.0 -0.0 0.0 255 0 0
0.00193 0.0375 0.39248 1.0 -0.0 0.0 255 0 0
0.00153 0.04158 0.39242 0.0 -1.0 1.0 255 0 0
0.00212 0.03584 0.39113 1.0 -0.0 1.0 255 0 0
0.00224 0.04187 0.39254 0.0 -1.0 1.0 255 0 0
0.01137 0.03433 0.38213 1.0 -1.0 0.0 255 0 0
0.0063 0.04044 0.39138 0.0 -0.0 1.0 255 0 0
0.00335 0.04196 0.39255 0.0 0.0 -1.0 255 0 0
0.0029 0.04195 0.39249 0.0 0.0 -1.0 255 0 0
0.00266 0.03604 0.3912 1.0 -0.0 1.0 255 0 0
0.00354 0.03807 0.39126 0.0 -0.0 1.0 255 0 0
0.01319 0.03721 0.38228 1.0 -1.0 0.0 255 0 0
0.00725 0.04194 0.39133 0.0 -0.0 1.0 255 0 0
0.01016 0.03291 0.38218 1.0 -1.0 0.0 255 0 0
0.01216 0.03538 0.38216 1.0 -0.0 0.0 255 0 0
0.01355 0.03791 0.3825 1.0 -1.0 0.0 255 0 0
0.0019 0.04116 0.39238 0.0 0.0 -1.0 255 0 0
0.00243 0.0383 0.3912 1.0 -0.0 1.0 255 0 0
0.00372 0.0423 0.39252 0.0 -0.0 1.0 255 0 0
0.0109 0.0339 0.38237 1.0 -1.0 0.0 255 0 0
0.00595 0.04091 0.39121 0.0 -0.0 1.0 255 0 0
0.01028 0.03327 0.38255 1.0 -1.0 1.0 255 0 0
0.00432 0.0391 0.39127 0.0 -0.0 1.0 255 0 0
0.00511 0.04024 0.39112 0.0 -1.0 1.0 255 0 0
0.00184 0.03788 0.39283 1.0 -0.0 0.0 255 0 0
0.006 0.04263 0.39224 1.0 -1.0 1.0 255 0 0
0.00679 0.04157 0.39122 1.0 -0.0 1.0 255 0 0
0.00318 0.04061 0.3921 0.0 -1.0 1.0 255 0 0
0.00805 0.04264 0.39126 1.0 -0.0 1.0 255 0 0
0.01169 0.03483 0.38241 1.0 -1.0 0.0 255 0 0
0.00971 0.03238 0.38247 1.0 -0.0 1.0 255 0 0
0.00725 0.04152 0.39096 1.0 -0.0 1.0 255 0 0
0.00992 0.03283 0.38257 1.0 -0.0 1.0 255 0 0
0.00235 0.03924 0.39259 1.0 -1.0 -0.0 255 0 0
0.00201 0.03889 0.39237 1.0 -1.0 -0.0 255 0 0
0.00548 0.03986 0.39131 0.0 -1.0 1.0 255 0 0
0.00361 0.03943 0.39101 0.0 -0.0 1.0 255 0 0
0.00274 0.03869 0.3911 0.0 -0.0 1.0 255 0 0
0.00295 0.03994 0.3923 1.0 -1.0 0.0 255 0 0
0.00252 0.0371 0.3909 1.0 -0.0 1.0 255 0 0
0.00273 0.03919 0.39122 0.0 -0.0 1.0 255 0 0
0.00214 0.03658 0.39121 1.0 -0.0 1.0 255 0 0
0.00414 0.03862 0.39116 0.0 -0.0 1.0 255 0 0
0.00456 0.04206 0.39262 0.0 -1.0 1.0 255 0 0
0.00216 0.03528 0.39141 1.0 -0.0 1.0 255 0 0
0.00803 0.04333 0.3913 0.0 -0.0 1.0 255 0 0
0.00763 0.04237 0.3912 1.0 -0.0 1.0 255 0 0
0.01062 0.03374 0.38277 1.0 -1.0 0.0 255 0 0
0.01117 0.03427 0.38263 1.0 -1.0 0.0 255 0 0
0.01221 0.03611 0.38287 1.0 -0.0 1.0 255 0 0
0.00591 0.03985 0.39114 0.0 -0.0 1.0 255 0 0
0.00488 0.03915 0.39108 0.0 -0.0 1.0 255 0 0
0.01315 0.03746 0.38288 1.0 -1.0 0.0 255 0 0
0.00936 0.032 0.38276 1.0 -0.0 1.0 255 0 0
0.01144 0.03472 0.38284 1.0 -0.0 0.0 255 0 0
0.00958 0.03258 0.38287 1.0 -0.0 1.0 255 0 0
0.01205 0.03563 0.38288 1.0 -0.0 0.0 255 0 0
0.00532 0.03926 0.39098 0.0 -0.0 1.0 255 0 0
0.00868 0.04344 0.39085 1.0 -0.0 1.0 255 0 0
0.01226 0.03662 0.3829 1.0 -0.0 1.0 255 0 0
0.00642 0.04071 0.39093 0.0 -0.0 1.0 255 0 0
0.00351 0.04062 0.3928 1.0 -1.0 0.0 255 0 0
0.00195 0.03626 0.39204 1.0 -0.0 1.0 255 0 0
0.01254 0.03706 0.38302 1.0 -1.0 0.0 255 0 0
0.00156 0.03642 0.39232 1.0 -0.0 1.0 255 0 0
0.00683 0.04054 0.39118 0.0 -0.0 1.0 255 0 0
0.0134 0.03791 0.38305 1.0 -1.0 0.0 255 0 0
0.01165 0.03523 0.38315 1.0 -0.0 1.0 255 0 0
0.00497 0.04172 0.39265 0.0 -1.0 1.0 255 0 0
0.01108 0.03443 0.3832 1.0 -1.0 1.0 255 0 0
0.01019 0.03344 0.38319 1.0 -1.0 1.0 255 0 0
0.01356 0.03844 0.38309 1.0 -0.0 0.0 255 0 0
0.00635 0.03974 0.3909 0.0 -0.0 1.0 255 0 0
0.00158 0.03678 0.39264 1.0 -0.0 1.0 255 0 0
0.00939 0.04442 0.39046 1.0 -0.0 1.0 255 0 0
0.00868 0.0446 0.39084 1.0 -0.0 1.0 255 0 0
0.00676 0.04243 0.39113 1.0 -0.0 1.0 255 0 0
0.00891 0.03195 0.38324 1.0 -0.0 1.0 255 0 0
0.00457 0.03998 0.39112 0.0 -1.0 1.0 255 0 0
0.00449 0.03952 0.39083 0.0 -0.0 1.0 255 0 0
0.01211 0.03684 0.38325 1.0 -0.0 1.0 255 0 0
0.0097 0.03302 0.38333 1.0 -1.0 1.0 255 0 0
0.00221 0.03503 0.39106 1.0 -0.0 1.0 255 0 0
0.01207 0.03626 0.38327 1.0 -0.0 1.0 255 0 0
0.00681 0.04107 0.39096 0.0 -0.0 1.0 255 0 0
0.00301 0.03646 0.39106 1.0 -0.0 1.0 255 0 0
0.00492 0.03861 0.39088 0.0 -0.0 1.0 255 0 0
0.00414 0.03814 0.39105 0.0 -0.0 1.0 255 0 0
0.00407 0.03771 0.39093 0.0 -0.0 1.0 255 0 0
0.01356 0.03888 0.38323 1.0 -0.0 0.0 255 0 0
0.01358 0.03937 0.3833 1.0 -0.0 0.0 255 0 0
0.00271 0.03505 0.39081 1.0 -0.0 1.0 255 0 0
0.01049 0.03379 0.38338 1.0 -1.0 1.0 255 0 0
0.00225 0.04113 0.39273 0.0 1.0 -1.0 255 0 0
0.00257 0.04151 0.39269 0.0 0.0 -1.0 255 0 0
0.0009 0.03911 0.39268 1.0 0.0 1.0 255 0 0
0.0093 0.03264 0.38333 1.0 -0.0 1.0 255 0 0
0.00267 0.03558 0.39099 1.0 -0.0 1.0 255 0 0
0.00388 0.03724 0.39094 0.0 -0.0 1.0 255 0 0
0.00914 0.03453 0.38342 1.0 -0.0 0.0 255 0 0
0.01332 0.0382 0.38356 1.0 -0.0 0.0 255 0 0
0.00275 0.03756 0.39083 1.0 -0.0 1.0 255 0 0
0.00239 0.03593 0.39078 1.0 -0.0 1.0 255 0 0
0.00387 0.03887 0.39072 0.0 -0.0 1.0 255 0 0
0.00852 0.03157 0.38358 1.0 -0.0 1.0 255 0 0
0.00879 0.04253 0.39061 1.0 -0.0 1.0 255 0 0
0.00388 0.04096 0.39285 1.0 -1.0 0.0 255 0 0
0.01311 0.03773 0.38345 1.0 -1.0 0.0 255 0 0
0.0077 0.0414 0.39092 0.0 -0.0 1.0 255 0 0
0.00734 0.04089 0.3906 0.0 -0.0 1.0 255 0 0
0.00763 0.0406 0.39082 0.0 -0.0 1.0 255 0 0
0.00685 0.03997 0.39082 0.0 -0.0 1.0 255 0 0
0.0123 0.03722 0.38364 1.0 -1.0 1.0 255 0 0
0.00447 0.03789 0.39081 0.0 -0.0 1.0 255 0 0
0.0103 0.03463 0.38368 1.0 -1.0 0.0 255 0 0
0.00996 0.03555 0.38359 1.0 -1.0 -0.0 255 0 0
0.00929 0.03398 0.38365 1.0 -1.0 0.0 255 0 0
0.01189 0.03688 0.38366 1.0 -1.0 1.0 255 0 0
0.00617 0.04034 0.39082 0.0 -0.0 1.0 255 0 0
0.00549 0.03999 0.39082 0.0 -1.0 1.0 255 0 0
0.00493 0.03963 0.39079 0.0 -1.0 1.0 255 0 0
0.01265 0.03746 0.38363 1.0 -1.0 0.0 255 0 0
0.01354 0.03975 0.38367 1.0 -0.0 0.0 255 0 0
0.0135 0.03917 0.38368 1.0 -0.0 0.0 255 0 0
0.00171 0.03722 0.39278 1.0 -0.0 0.0 255 0 0
0.01136 0.03611 0.38374 1.0 -0.0 1.0 255 0 0
0.00345 0.03848 0.39073 0.0 -0.0 1.0 255 0 0
0.01138 0.03526 0.38384 1.0 -0.0 1.0 255 0 0
0.00369 0.03667 0.39085 0.0 -0.0 1.0 255 0 0
0.00987 0.03389 0.38374 1.0 -1.0 0.0 255 0 0
0.00971 0.03428 0.38364 1.0 -1.0 0.0 255 0 0
0.01045 0.03537 0.38371 1.0 -1.0 0.0 255 0 0
0.00492 0.03819 0.39073 0.0 -0.0 1.0 255 0 0
0.00915 0.03281 0.38382 1.0 -0.0 0.0 255 0 0
0.00298 0.04123 0.39292 0.0 0.0 -1.0 255 0 0
0.00591 0.03931 0.3908 0.0 -0.0 1.0 255 0 0
0.00832 0.04244 0.39073 1.0 -0.0 1.0 255 0 0
0.00854 0.03202 0.3838 1.0 -0.0 1.0 255 0 0
0.00337 0.0363 0.39079 1.0 -0.0 1.0 255 0 0
0.01092 0.03448 0.38371 1.0 -1.0 0.0 255 0 0
0.00338 0.04144 0.39297 0.0 0.0 -1.0 255 0 0
0.00859 0.03359 0.38358 1.0 -0.0 0.0 255 0 0
0.00902 0.03342 0.38384 1.0 -1.0 0.0 255 0 0
0.01098 0.03555 0.38378 1.0 -0.0 1.0 255 0 0
0.00592 0.03985 0.39058 0.0 -1.0 1.0 255 0 0
0.01048 0.03593 0.3837 1.0 -0.0 0.0 255 0 0
0.01078 0.03636 0.38378 1.0 -0.0 1.0 255 0 0
0.0075 0.04214 0.39074 1.0 -0.0 1.0 255 0 0
0.00961 0.03507 0.38351 1.0 -1.0 0.0 255 0 0
0.00648 0.04004 0.39052 0.0 -0.0 1.0 255 0 0
0.00394 0.04201 0.39296 0.0 -1.0 1.0 255 0 0
0.00251 0.03647 0.39075 1.0 -0.0 1.0 255 0 0
0.0134 0.03869 0.38382 1.0 -0.0 0.0 255 0 0
0.01175 0.03649 0.38391 1.0 -0.0 1.0 255 0 0
0.00243 0.03446 0.39076 1.0 -0.0 1.0 255 0 0
0.01082 0.03492 0.38382 1.0 -0.0 0.0 255 0 0
0.0095 0.03312 0.38387 1.0 -1.0 0.0 255 0 0
0.00693 0.04025 0.39046 0.0 -0.0 1.0 255 0 0
0.01238 0.03746 0.38411 1.0 -1.0 1.0 255 0 0
0.0112 0.03655 0.38391 1.0 -0.0 1.0 255 0 0
0.00451 0.03727 0.39062 0.0 -0.0 1.0 255 0 0
0.0083 0.04171 0.39056 1.0 -0.0 1.0 255 0 0
0.00858 0.04291 0.39072 0.0 -0.0 1.0 255 0 0
0.00563 0.03898 0.39068 0.0 -0.0 1.0 255 0 0
0.00413 0.04271 0.39346 0.0 -1.0 -0.0 255 0 0
0.00425 0.04238 0.39275 0.0 -1.0 1.0 255 0 0
0.008 0.04082 0.3906 0.0 -0.0 1.0 255 0 0
0.00837 0.03131 0.384 1.0 -0.0 1.0 255 0 0
0.00982 0.03343 0.38392 1.0 -1.0 0.0 255 0 0
0.0025 0.04221 0.3928 0.0 -1.0 0.0 255 0 0
0.00239 0.04201 0.39334 0.0 -1.0 0.0 255 0 0
0.01277 0.03773 0.38404 1.0 -1.0 0.0 255 0 0
0.01296 0.03812 0.38433 1.0 -1.0 0.0 255 0 0
0.00706 0.04244 0.39066 1.0 -0.0 1.0 255 0 0
0.00444 0.042 0.39305 0.0 -1.0 1.0 255 0 0
0.00133 0.03785 0.3932 1.0 0.0 0.0 255 0 0
0.00478 0.03905 0.3905 0.0 -0.0 1.0 255 0 0
0.00367 0.03767 0.39044 0.0 -0.0 1.0 255 0 0
0.00957 0.03344 0.38434 1.0 -1.0 0.0 255 0 0
0.00292 0.03694 0.39057 1.0 -0.0 1.0 255 0 0
0.00261 0.03566 0.39048 1.0 -0.0 1.0 255 0 0
0.00115 0.03803 0.39279 1.0 0.0 0.0 255 0 0
0.00739 0.0401 0.39065 0.0 -0.0 1.0 255 0 0
0.00695 0.04069 0.39069 0.0 -0.0 1.0 255 0 0
0.01344 0.03981 0.38414 1.0 -0.0 0.0 255 0 0
0.01344 0.0406 0.38399 1.0 -0.0 0.0 255 0 0
0.00342 0.03586 0.39053 1.0 -0.0 1.0 255 0 0
0.00564 0.03813 0.39038 0.0 -0.0 1.0 255 0 0
0.00536 0.03845 0.39063 0.0 -0.0 1.0 255 0 0
0.01147 0.03573 0.38414 1.0 -0.0 1.0 255 0 0
0.01037 0.03409 0.3842 1.0 -1.0 0.0 255 0 0
0.00736 0.03968 0.39041 0.0 -0.0 1.0 255 0 0
0.00309 0.03556 0.39065 1.0 -0.0 1.0 255 0 0
0.00663 0.03912 0.39034 0.0 -0.0 1.0 255 0 0
0.00807 0.04134 0.39065 0.0 -0.0 1.0 255 0 0
0.01315 0.03852 0.38434 1.0 -0.0 0.0 255 0 0
0.01335 0.03905 0.38421 1.0 -0.0 0.0 255 0 0
0.01056 0.03474 0.3844 1.0 -1.0 0.0 255 0 0
0.01162 0.0369 0.38409 1.0 -0.0 1.0 255 0 0
0.00846 0.03166 0.38425 1.0 -0.0 1.0 255 0 0
0.00318 0.03943 0.39333 1.0 -1.0 -1.0 255 0 0
0.00336 0.03799 0.39065 0.0 -0.0 1.0 255 0 0
0.00773 0.03121 0.38434 1.0 -0.0 1.0 255 0 0
0.0087 0.03283 0.38421 1.0 -0.0 0.0 255 0 0
0.00614 0.03895 0.39045 0.0 -0.0 1.0 255 0 0
0.0041 0.03833 0.39046 0.0 -0.0 1.0 255 0 0
0.00102 0.03839 0.3931 1.0 1.0 0.0 255 0 0
0.00076 0.03888 0.39315 1.0 1.0 0.0 255 0 0
0.00822 0.03285 0.38395 1.0 -0.0 1.0 255 0 0
0.00784 0.03985 0.39025 0.0 -0.0 1.0 255 0 0
0.00505 0.03759 0.39046 0.0 -0.0 1.0 255 0 0
0.00305 0.03481 0.39038 1.0 -0.0 1.0 255 0 0
0.00799 0.03187 0.38439 1.0 -0.0 1.0 255 0 0
0.00301 0.03411 0.39032 1.0 -0.0 1.0 255 0 0
0.00836 0.03236 0.3844 1.0 -0.0 1.0 255 0 0
0.00933 0.04386 0.39041 1.0 -0.0 1.0 255 0 0
0.01131 0.03609 0.38431 1.0 -0.0 0.0 255 0 0
0.00761 0.04052 0.39029 0.0 -0.0 1.0 255 0 0
0.00315 0.03635 0.39022 1.0 -0.0 1.0 255 0 0
0.00551 0.03869 0.39007 0.0 -0.0 1.0 255 0 0
0.01182 0.03726 0.38436 1.0 -1.0 1.0 255 0 0
0.01085 0.03535 0.38456 1.0 -0.0 0.0 255 0 0
0.00484 0.04283 0.39295 0.0 -1.0 0.0 255 0 0
0.01069 0.03701 0.38407 1.0 -0.0 0.0 255 0 0
0.00915 0.04334 0.39041 1.0 -0.0 1.0 255 0 0
0.00426 0.03631 0.39041 0.0 -0.0 1.0 255 0 0
0.00372 0.04272 0.3928 0.0 -1.0 1.0 255 0 0
0.00384 0.03601 0.39038 0.0 -0.0 1.0 255 0 0
0.00331 0.04245 0.39318 0.0 -1.0 0.0 255 0 0
0.00834 0.04044 0.3903 0.0 -0.0 1.0 255 0 0
0.01337 0.03968 0.38457 1.0 -0.0 0.0 255 0 0
0.0087 0.04208 0.39034 1.0 -0.0 1.0 255 0 0
0.00473 0.03658 0.39037 0.0 -0.0 1.0 255 0 0
0.01165 0.03765 0.38455 0.0 -1.0 1.0 255 0 0
0.01202 0.03775 0.38431 0.0 -1.0 1.0 255 0 0
0.00462 0.03849 0.39031 0.0 -0.0 1.0 255 0 0
0.00551 0.03936 0.39044 0.0 -0.0 1.0 255 0 0
0.00399 0.04138 0.39314 1.0 -1.0 1.0 255 0 0
0.00329 0.03683 0.39032 0.0 -0.0 1.0 255 0 0
0.00793 0.03235 0.38481 1.0 -0.0 1.0 255 0 0
0.00792 0.04201 0.39033 1.0 -0.0 1.0 255 0 0
0.01318 0.03893 0.38466 1.0 -0.0 0.0 255 0 0
0.01342 0.04057 0.38455 1.0 -0.0 0.0 255 0 0
0.00377 0.03556 0.39011 1.0 -0.0 1.0 255 0 0
0.011 0.03718 0.38446 1.0 -0.0 0.0 255 0 0
0.00993 0.034 0.38429 1.0 -1.0 0.0 255 0 0
0.00291 0.03966 0.39301 1.0 -1.0 -0.0 255 0 0
0.00914 0.04277 0.39022 1.0 -0.0 1.0 255 0 0
0.00741 0.03988 0.39002 0.0 -1.0 1.0 255 0 0
0.00428 0.03591 0.39012 0.0 -0.0 1.0 255 0 0
0.00556 0.03751 0.39022 0.0 -0.0 1.0 255 0 0
0.00916 0.03326 0.38458 1.0 -1.0 0.0 255 0 0
0.00872 0.04156 0.39012 1.0 -0.0 1.0 255 0 0
0.01326 0.04146 0.38479 1.0 0.0 0.0 255 0 0
0.00869 0.04106 0.39019 1.0 -0.0 1.0 255 0 0
0.00344 0.03984 0.39357 1.0 -0.0 -1.0 255 0 0
0.01121 0.03573 0.3846 1.0 -0.0 0.0 255 0 0
0.0061 0.03947 0.3903 0.0 -0.0 1.0 255 0 0
0.00584 0.03904 0.39013 0.0 -0.0 1.0 255 0 0
0.00441 0.03802 0.39024 0.0 -0.0 1.0 255 0 0
0.00294 0.03537 0.39012 1.0 -0.0 1.0 255 0 0
0.0083 0.04189 0.39007 1.0 -0.0 1.0 255 0 0
0.00268 0.03451 0.39038 1.0 -0.0 1.0 255 0 0
0.01309 0.0415 0.38531 1.0 0.0 0.0 255 0 0
0.00388 0.03708 0.39017 0.0 -0.0 1.0 255 0 0
0.00838 0.03272 0.38471 1.0 -1.0 1.0 255 0 0
0.00627 0.03856 0.39018 0.0 -0.0 1.0 255 0 0
0.00768 0.03194 0.38481 1.0 -0.0 1.0 255 0 0
0.01335 0.04016 0.38492 1.0 -0.0 0.0 255 0 0
0.01295 0.03854 0.38477 1.0 -1.0 0.0 255 0 0
0.01245 0.03782 0.38469 1.0 -1.0 1.0 255 0 0
0.00223 0.03848 0.39333 1.0 -1.0 -0.0 255 0 0
0.00458 0.04302 0.39328 0.0 -1.0 0.0 255 0 0
0.00282 0.03907 0.39339 1.0 -1.0 -0.0 255 0 0
0.00511 0.03675 0.39019 0.0 -0.0 1.0 255 0 0
0.00822 0.03964 0.38996 0.0 -1.0 1.0 255 0 0
0.0019 0.03894 0.39321 0.0 -1.0 -0.0 255 0 0
0.00974 0.04432 0.39011 1.0 -0.0 1.0 255 0 0
0.00949 0.03387 0.38468 1.0 -1.0 0.0 255 0 0
0.01153 0.03825 0.385 0.0 -1.0 1.0 255 0 0
0.0094 0.04312 0.39011 1.0 -0.0 1.0 255 0 0
0.012 0.03803 0.38469 0.0 -1.0 1.0 255 0 0
0.01069 0.03823 0.38469 1.0 -0.0 1.0 255 0 0
0.01115 0.03851 0.38512 0.0 -1.0 1.0 255 0 0
0.01319 0.03958 0.38505 1.0 -0.0 0.0 255 0 0
0.00237 0.03898 0.39337 0.0 -1.0 -0.0 255 0 0
0.0044 0.0373 0.39005 0.0 -0.0 1.0 255 0 0
0.00685 0.03972 0.39017 0.0 -0.0 1.0 255 0 0
0.00316 0.03576 0.39006 1.0 -0.0 1.0 255 0 0
0.01069 0.03521 0.38507 1.0 -0.0 0.0 255 0 0
0.01143 0.03719 0.38475 1.0 -0.0 1.0 255 0 0
0.00733 0.03116 0.38489 1.0 -0.0 1.0 255 0 0
0.00334 0.04075 0.39325 1.0 -0.0 -1.0 255 0 0
0.00984 0.03399 0.38492 1.0 -1.0 0.0 255 0 0
0.00112 0.03828 0.39355 0.0 1.0 -0.0 255 0 0
0.01328 0.04071 0.38502 1.0 -0.0 0.0 255 0 0
0.00774 0.03938 0.39006 0.0 -1.0 1.0 255 0 0
0.00501 0.04251 0.39332 0.0 -1.0 0.0 255 0 0
0.01124 0.03664 0.38492 1.0 -0.0 0.0 255 0 0
0.006 0.03775 0.39004 0.0 -0.0 1.0 255 0 0
0.00541 0.04241 0.39364 0.0 -1.0 -0.0 255 0 0
0.00912 0.0423 0.39009 1.0 -0.0 1.0 255 0 0
0.00534 0.04292 0.39331 0.0 -1.0 0.0 255 0 0
0.00552 0.03675 0.39001 0.0 -0.0 1.0 255 0 0
0.00872 0.04046 0.39005 1.0 -0.0 1.0 255 0 0
0.00305 0.03339 0.39002 1.0 -0.0 1.0 255 0 0
0.00644 0.03899 0.38987 0.0 -0.0 1.0 255 0 0
0.00799 0.0421 0.38968 1.0 -0.0 1.0 255 0 0
0.00869 0.03342 0.38492 1.0 -1.0 0.0 255 0 0
0.00356 0.03646 0.39006 0.0 -0.0 1.0 255 0 0
0.01116 0.03791 0.38472 1.0 -0.0 1.0 255 0 0
0.00182 0.03809 0.39357 0.0 -1.0 0.0 255 0 0
0.00917 0.04116 0.3899 1.0 -0.0 1.0 255 0 0
0.00738 0.03162 0.38502 1.0 -0.0 1.0 255 0 0
0.01019 0.03441 0.38496 1.0 -1.0 0.0 255 0 0
0.0133 0.04108 0.38542 1.0 0.0 0.0 255 0 0
0.01155 0.03742 0.38511 1.0 -1.0 0.0 255 0 0
0.00285 0.0423 0.39304 0.0 -1.0 1.0 255 0 0
0.00331 0.0339 0.38997 1.0 -0.0 1.0 255 0 0
0.00632 0.03815 0.38997 0.0 -0.0 1.0 255 0 0
0.01084 0.03646 0.38507 1.0 -0.0 0.0 255 0 0
0.01265 0.03826 0.385 1.0 -1.0 1.0 255 0 0
0.01301 0.0391 0.38516 1.0 -0.0 0.0 255 0 0
0.00205 0.04172 0.39434 0.0 1.0 0.0 255 0 0
0.01082 0.036 0.38533 1.0 -0.0 0.0 255 0 0
0.0084 0.03311 0.38519 1.0 -1.0 1.0 255 0 0
0.01099 0.03717 0.3851 1.0 -0.0 0.0 255 0 0
0.00926 0.03352 0.38493 1.0 -1.0 0.0 255 0 0
0.00952 0.03393 0.38524 1.0 -1.0 0.0 255 0 0
0.00525 0.03783 0.38984 0.0 -0.0 1.0 255 0 0
0.00358 0.03565 0.38973 0.0 -0.0 1.0 255 0 0
0.01037 0.03482 0.3851 1.0 -0.0 0.0 255 0 0
0.0051 0.03825 0.39006 0.0 -0.0 1.0 255 0 0
0.00487 0.03595 0.38993 0.0 -1.0 1.0 255 0 0
0.00397 0.04146 0.39365 1.0 0.0 -1.0 255 0 0
0.00673 0.03132 0.38512 1.0 -0.0 1.0 255 0 0
0.00957 0.04194 0.38973 1.0 -0.0 1.0 255 0 0
0.01 0.04404 0.38981 1.0 -0.0 1.0 255 0 0
0.00448 0.03556 0.38979 0.0 -1.0 1.0 255 0 0
0.00869 0.03997 0.38988 0.0 -0.0 1.0 255 0 0
0.00449 0.03664 0.38974 0.0 -0.0 1.0 255 0 0
0.00634 0.03759 0.38979 0.0 -0.0 1.0 255 0 0
0.0056 0.03819 0.38985 0.0 -0.0 1.0 255 0 0
0.00239 0.04191 0.39383 0.0 -1.0 -0.0 255 0 0
0.00317 0.04217 0.39362 0.0 -1.0 -0.0 255 0 0
0.00698 0.03085 0.38524 1.0 -0.0 1.0 255 0 0
0.01049 0.03566 0.38529 1.0 -0.0 0.0 255 0 0
0.00269 0.03858 0.39356 1.0 -1.0 -0.0 255 0 0
0.01314 0.03998 0.38545 1.0 -0.0 0.0 255 0 0
0.00796 0.04012 0.3899 0.0 -0.0 1.0 255 0 0
0.0089 0.03355 0.38536 1.0 -1.0 0.0 255 0 0
0.00621 0.04228 0.39386 1.0 -0.0 -1.0 255 0 0
0.00473 0.04211 0.39355 1.0 -0.0 0.0 255 0 0
0.00331 0.03525 0.38981 1.0 -0.0 1.0 255 0 0
0.00651 0.03081 0.38516 1.0 -0.0 1.0 255 0 0
0.00906 0.04075 0.38963 1.0 -0.0 1.0 255 0 0
0.01306 0.04193 0.38504 1.0 0.0 0.0 255 0 0
0.013 0.03948 0.38548 1.0 -0.0 1.0 255 0 0
0.00792 0.03939 0.38947 0.0 -1.0 1.0 255 0 0
0.0032 0.03306 0.3897 1.0 -0.0 1.0 255 0 0
0.00804 0.03344 0.38552 0.0 -1.0 1.0 255 0 0
0.00611 0.03703 0.38978 0.0 -0.0 1.0 255 0 0
0.00747 0.03271 0.38531 1.0 -1.0 1.0 255 0 0
0.00578 0.03636 0.38973 0.0 -0.0 1.0 255 0 0
0.01197 0.03784 0.38538 1.0 -1.0 0.0 255 0 0
0.00977 0.04348 0.38986 1.0 -0.0 1.0 255 0 0
0.00739 0.03941 0.38974 0.0 -1.0 1.0 255 0 0
0.01312 0.04247 0.38541 1.0 0.0 0.0 255 0 0
0.01084 0.03908 0.38559 1.0 1.0 -0.0 255 0 0
0.01054 0.03897 0.38527 1.0 1.0 -0.0 255 0 0
0.00898 0.0417 0.38977 1.0 -0.0 1.0 255 0 0
0.0038 0.03613 0.38979 0.0 -0.0 1.0 255 0 0
0.00698 0.03901 0.38963 0.0 -0.0 1.0 255 0 0
0.00356 0.03858 0.3939 0.0 -1.0 -1.0 255 0 0
0.0041 0.03494 0.38908 0.0 -0.0 1.0 255 0 0
0.00312 0.03861 0.39372 0.0 -1.0 -1.0 255 0 0
0.00501 0.03695 0.38964 0.0 -0.0 1.0 255 0 0
0.00333 0.04099 0.39364 1.0 1.0 -0.0 255 0 0
0.00333 0.04044 0.39378 1.0 0.0 -0.0 255 0 0
0.00677 0.03776 0.38959 0.0 -0.0 1.0 255 0 0
0.01265 0.03868 0.38547 1.0 -1.0 1.0 255 0 0
0.00904 0.03384 0.38567 1.0 -1.0 1.0 255 0 0
0.00711 0.03204 0.38543 1.0 -0.0 1.0 255 0 0
0.00966 0.03439 0.38566 1.0 -1.0 1.0 255 0 0
0.00859 0.03945 0.38965 0.0 -0.0 1.0 255 0 0
0.00498 0.0432 0.39373 0.0 -1.0 -0.0 255 0 0
0.00405 0.04228 0.39412 0.0 -1.0 -1.0 255 0 0
0.00531 0.03739 0.38968 0.0 -0.0 1.0 255 0 0
0.00429 0.03609 0.38955 0.0 -0.0 1.0 255 0 0
0.00624 0.04277 0.39378 1.0 -1.0 -1.0 255 0 0
0.00536 0.03592 0.38974 0.0 -1.0 1.0 255 0 0
0.0015 0.03825 0.3939 0.0 1.0 -0.0 255 0 0
0.00681 0.03126 0.38587 1.0 -0.0 1.0 255 0 0
0.00927 0.03426 0.38545 1.0 -1.0 1.0 255 0 0
0.00684 0.03825 0.38967 0.0 -0.0 1.0 255 0 0
0.00227 0.03842 0.39424 0.0 -1.0 0.0 255 0 0
0.01084 0.03683 0.38555 1.0 -0.0 0.0 255 0 0
0.00968 0.04257 0.38971 1.0 -0.0 1.0 255 0 0
0.00738 0.03866 0.3896 0.0 -0.0 1.0 255 0 0
0.00717 0.03282 0.38562 1.0 -0.0 1.0 255 0 0
0.00734 0.03341 0.38596 0.0 -1.0 1.0 255 0 0
0.01008 0.0446 0.38986 1.0 -0.0 1.0 255 0 0
0.01073 0.03728 0.38554 1.0 -0.0 0.0 255 0 0
0.00315 0.03452 0.38977 1.0 -0.0 1.0 255 0 0
0.01015 0.03499 0.38559 1.0 -0.0 1.0 255 0 0
0.00485 0.03633 0.38946 0.0 -0.0 1.0 255 0 0
0.00397 0.03885 0.39398 0.0 -1.0 -1.0 255 0 0
0.0029 0.04196 0.39401 0.0 1.0 0.0 255 0 0
0.01071 0.03637 0.38561 1.0 -0.0 1.0 255 0 0
0.00364 0.03402 0.38961 1.0 -0.0 1.0 255 0 0
0.00389 0.0399 0.39398 1.0 -0.0 -1.0 255 0 0
0.0056 0.043 0.39439 0.0 -1.0 -1.0 255 0 0
0.00768 0.03896 0.38968 0.0 -1.0 1.0 255 0 0
0.00555 0.04339 0.39368 0.0 -1.0 -0.0 255 0 0
0.0066 0.04248 0.39418 0.0 -0.0 -1.0 255 0 0
0.00651 0.04303 0.394 1.0 -0.0 -1.0 255 0 0
0.01139 0.03766 0.38571 1.0 -0.0 0.0 255 0 0
0.00357 0.03267 0.38963 1.0 -0.0 1.0 255 0 0
0.00592 0.03931 0.39468 1.0 -0.0 -1.0 255 0 0
0.00382 0.04242 0.39372 0.0 -1.0 -0.0 255 0 0
0.00493 0.04133 0.39408 0.0 -0.0 -1.0 255 0 0
0.00546 0.04146 0.39413 0.0 -0.0 -1.0 255 0 0
0.00486 0.04176 0.39384 1.0 -0.0 -0.0 255 0 0
0.00416 0.04046 0.39402 1.0 0.0 -0.0 255 0 0
0.00388 0.04096 0.39401 1.0 1.0 -0.0 255 0 0
0.00521 0.04059 0.3942 1.0 0.0 -1.0 255 0 0
0.00415 0.03942 0.39398 1.0 -0.0 -1.0 255 0 0
0.00465 0.04053 0.39402 1.0 -0.0 -1.0 255 0 0
0.00489 0.0397 0.39412 0.0 -0.0 -1.0 255 0 0
0.00448 0.03913 0.3941 0.0 -1.0 -1.0 255 0 0
0.00445 0.0399 0.394 1.0 -0.0 -1.0 255 0 0
0.00451 0.04102 0.39404 1.0 0.0 -1.0 255 0 0
0.00594 0.03772 0.38952 0.0 -0.0 1.0 255 0 0
0.00683 0.03224 0.38581 1.0 -0.0 1.0 255 0 0
0.00758 0.033 0.38575 0.0 -1.0 1.0 255 0 0
0.00632 0.0309 0.3856 1.0 0.0 1.0 255 0 0
0.00648 0.0385 0.38957 0.0 -0.0 1.0 255 0 0
0.01029 0.0428 0.3894 1.0 -0.0 1.0 255 0 0
0.00883 0.03423 0.38581 1.0 -1.0 1.0 255 0 0
0.00371 0.03526 0.3895 1.0 -0.0 1.0 255 0 0
0.00349 0.03476 0.38949 1.0 -0.0 1.0 255 0 0
0.00654 0.0317 0.38569 1.0 -0.0 1.0 255 0 0
0.0105 0.03591 0.38572 1.0 -0.0 1.0 255 0 0
0.00846 0.03349 0.38569 0.0 -1.0 1.0 255 0 0
0.00456 0.03511 0.38948 0.0 -0.0 1.0 255 0 0
0.00593 0.03597 0.38953 0.0 -0.0 1.0 255 0 0
0.00516 0.03545 0.38942 0.0 -1.0 1.0 255 0 0
0.01307 0.04068 0.38573 1.0 -0.0 0.0 255 0 0
0.00273 0.03832 0.39399 0.0 -1.0 0.0 255 0 0
0.00675 0.03682 0.38935 0.0 -0.0 1.0 255 0 0
0.00681 0.03079 0.38614 1.0 0.0 1.0 255 0 0
0.00819 0.03385 0.38582 0.0 -1.0 1.0 255 0 0
0.00998 0.03559 0.38578 1.0 -0.0 1.0 255 0 0
0.01289 0.04271 0.3858 1.0 0.0 0.0 255 0 0
0.01031 0.03977 0.3861 1.0 1.0 -0.0 255 0 0
0.00345 0.04213 0.39399 0.0 -1.0 -0.0 255 0 0
0.00967 0.04029 0.38935 1.0 -0.0 1.0 255 0 0
0.00845 0.04189 0.38926 1.0 -0.0 1.0 255 0 0
0.00466 0.03864 0.39436 0.0 -1.0 -1.0 255 0 0
0.00889 0.04022 0.38946 1.0 -0.0 1.0 255 0 0
0.00619 0.04139 0.39492 0.0 -0.0 -1.0 255 0 0
0.00401 0.03562 0.38946 0.0 -0.0 1.0 255 0 0
0.01175 0.03805 0.38595 1.0 -1.0 0.0 255 0 0
0.00975 0.03508 0.38575 1.0 -0.0 1.0 255 0 0
0.00673 0.04309 0.39455 0.0 -1.0 -1.0 255 0 0
0.00626 0.04319 0.39449 0.0 -1.0 -1.0 255 0 0
0.00401 0.03239 0.38909 1.0 0.0 1.0 255 0 0
0.00947 0.04088 0.38942 1.0 -0.0 1.0 255 0 0
0.00881 0.0417 0.389 1.0 -0.0 1.0 255 0 0
0.0058 0.0368 0.3893 0.0 -0.0 1.0 255 0 0
0.00637 0.03745 0.38925 0.0 -0.0 1.0 255 0 0
0.01031 0.04384 0.38935 1.0 -0.0 1.0 255 0 0
0.01014 0.04338 0.38945 1.0 -0.0 1.0 255 0 0
0.01057 0.03713 0.38601 1.0 -0.0 1.0 255 0 0
0.0129 0.04012 0.38593 1.0 -0.0 1.0 255 0 0
0.01284 0.04177 0.38588 1.0 0.0 0.0 255 0 0
0.00409 0.03479 0.3895 1.0 -0.0 1.0 255 0 0
0.00708 0.03069 0.38567 1.0 -0.0 1.0 255 0 0
0.00403 0.03431 0.38937 1.0 -0.0 1.0 255 0 0
0.00338 0.03839 0.39435 0.0 -1.0 0.0 255 0 0
0.01029 0.03633 0.38578 1.0 -0.0 1.0 255 0 0
0.00625 0.0311 0.38607 1.0 -0.0 1.0 255 0 0
0.00927 0.03427 0.38595 1.0 -1.0 1.0 255 0 0
0.00393 0.03837 0.39442 0.0 -1.0 -0.0 255 0 0
0.00998 0.0416 0.38934 1.0 -0.0 1.0 255 0 0
0.00644 0.03627 0.38938 0.0 -0.0 1.0 255 0 0
0.00994 0.04105 0.38933 1.0 -0.0 1.0 255 0 0
0.00579 0.0373 0.38945 0.0 -0.0 1.0 255 0 0
0.00895 0.03979 0.38923 1.0 -0.0 1.0 255 0 0
0.0125 0.03902 0.38591 1.0 -1.0 1.0 255 0 0
0.0027 0.03852 0.39439 0.0 1.0 -0.0 255 0 0
0.01033 0.03753 0.3862 1.0 -0.0 1.0 255 0 0
0.00924 0.04155 0.38941 1.0 -0.0 1.0 255 0 0
0.00785 0.03344 0.38604 0.0 -1.0 1.0 255 0 0
0.00676 0.03795 0.38918 0.0 -0.0 1.0 255 0 0
0.00603 0.03635 0.389 0.0 -0.0 1.0 255 0 0
0.0093 0.03507 0.38619 1.0 -0.0 1.0 255 0 0
0.0043 0.04258 0.39386 0.0 -1.0 -0.0 255 0 0
0.00377 0.0419 0.39447 0.0 -1.0 -1.0 255 0 0
0.01295 0.04226 0.38588 1.0 0.0 0.0 255 0 0
0.00713 0.03748 0.38928 0.0 -0.0 1.0 255 0 0
0.01268 0.04297 0.38612 1.0 0.0 0.0 255 0 0
0.01155 0.03854 0.3854 0.0 -1.0 1.0 255 0 0
0.01169 0.0389 0.38611 0.0 -1.0 0.0 255 0 0
0.00894 0.03934 0.38939 0.0 -1.0 1.0 255 0 0
0.0062 0.04007 0.39498 1.0 -0.0 0.0 255 0 0
0.00629 0.04172 0.39442 1.0 -0.0 -1.0 255 0 0
0.0064 0.04195 0.39484 0.0 -1.0 -1.0 255 0 0
0.0038 0.03359 0.38937 1.0 -0.0 1.0 255 0 0
0.00424 0.04202 0.39454 0.0 -1.0 -0.0 255 0 0
0.01062 0.04294 0.38913 1.0 -0.0 1.0 255 0 0
0.00854 0.03893 0.38925 0.0 -1.0 1.0 255 0 0
0.00778 0.03855 0.38927 0.0 -1.0 1.0 255 0 0
0.00981 0.04117 0.38885 1.0 -0.0 1.0 255 0 0
0.01045 0.04459 0.38944 1.0 -0.0 1.0 255 0 0
0.00837 0.03932 0.3892 0.0 -1.0 1.0 255 0 0
0.00136 0.03872 0.39442 0.0 1.0 -0.0 255 0 0
0.00805 0.03379 0.38639 0.0 -1.0 1.0 255 0 0
0.00364 0.03404 0.38917 1.0 -0.0 1.0 255 0 0
0.00625 0.03699 0.38915 0.0 -0.0 1.0 255 0 0
0.00544 0.03656 0.38934 0.0 -0.0 1.0 255 0 0
0.00994 0.03978 0.38898 1.0 -0.0 1.0 255 0 0
0.00606 0.03556 0.3892 0.0 -0.0 1.0 255 0 0
0.00478 0.04211 0.39464 0.0 -1.0 -1.0 255 0 0
0.00692 0.0331 0.38604 1.0 -1.0 1.0 255 0 0
0.01005 0.04233 0.38933 1.0 -0.0 1.0 255 0 0
0.00741 0.03789 0.38918 1.0 -0.0 1.0 255 0 0
0.0063 0.03205 0.38625 1.0 -0.0 1.0 255 0 0
0.01284 0.04092 0.38608 1.0 -0.0 0.0 255 0 0
0.00649 0.03354 0.38665 0.0 -1.0 1.0 255 0 0
0.01039 0.04208 0.38919 1.0 -0.0 1.0 255 0 0
0.00687 0.03643 0.38916 0.0 -0.0 1.0 255 0 0
0.00539 0.0386 0.39472 1.0 -1.0 -1.0 255 0 0
0.00542 0.03982 0.39433 1.0 -0.0 -1.0 255 0 0
0.00541 0.03907 0.39447 1.0 -1.0 -1.0 255 0 0
0.01043 0.03939 0.38569 1.0 0.0 -0.0 255 0 0
0.0062 0.03073 0.38638 1.0 0.0 1.0 255 0 0
0.00603 0.04119 0.39454 1.0 -0.0 -1.0 255 0 0
0.00457 0.04238 0.39427 1.0 -1.0 -1.0 255 0 0
0.01031 0.03666 0.38621 1.0 -0.0 1.0 255 0 0
0.00499 0.04251 0.39445 0.0 -1.0 -1.0 255 0 0
0.00581 0.04271 0.39474 0.0 -1.0 -1.0 255 0 0
0.00434 0.03543 0.38917 0.0 -0.0 1.0 255 0 0
0.00425 0.03877 0.39517 0.0 1.0 -1.0 255 0 0
0.00406 0.03847 0.39484 0.0 1.0 -0.0 255 0 0
0.01079 0.04335 0.38907 1.0 -0.0 1.0 255 0 0
0.00542 0.03609 0.3891 0.0 -0.0 1.0 255 0 0
0.01087 0.03775 0.38635 1.0 -0.0 0.0 255 0 0
0.0014 0.03911 0.39483 0.0 -1.0 1.0 255 0 0
0.01249 0.03936 0.38623 1.0 -0.0 1.0 255 0 0
0.00231 0.03871 0.39465 0.0 1.0 -1.0 255 0 0
0.01163 0.03843 0.38624 1.0 -1.0 1.0 255 0 0
0.00621 0.0326 0.38632 1.0 -0.0 1.0 255 0 0
0.00451 0.03462 0.38912 0.0 -0.0 1.0 255 0 0
0.00519 0.04197 0.39499 0.0 -1.0 -1.0 255 0 0
0.00266 0.03905 0.39494 0.0 1.0 -1.0 255 0 0
0.00764 0.03405 0.38642 0.0 -1.0 1.0 255 0 0
0.00727 0.03846 0.38913 0.0 -0.0 1.0 255 0 0
0.01249 0.04249 0.38627 1.0 0.0 0.0 255 0 0
0.00364 0.03313 0.38913 1.0 -0.0 1.0 255 0 0
0.0098 0.03591 0.38617 1.0 -0.0 1.0 255 0 0
0.00994 0.03694 0.38629 1.0 -0.0 1.0 255 0 0
0.00937 0.03983 0.38901 1.0 -0.0 1.0 255 0 0
0.00508 0.03488 0.38903 0.0 -0.0 1.0 255 0 0
0.01041 0.04116 0.38899 1.0 -0.0 1.0 255 0 0
0.01262 0.04167 0.38629 1.0 0.0 0.0 255 0 0
0.0066 0.03568 0.38907 0.0 -0.0 1.0 255 0 0
0.0059 0.03164 0.38634 1.0 -0.0 1.0 255 0 0
0.01007 0.03626 0.38637 1.0 -0.0 1.0 255 0 0
0.00941 0.04138 0.38891 1.0 -0.0 1.0 255 0 0
0.00892 0.0344 0.38644 1.0 -1.0 1.0 255 0 0
0.01083 0.0447 0.38901 1.0 -0.0 1.0 255 0 0
0.00503 0.03565 0.38899 0.0 -0.0 1.0 255 0 0
0.0047 0.03529 0.38891 0.0 -0.0 1.0 255 0 0
0.01109 0.04345 0.38874 1.0 -0.0 1.0 255 0 0
0.00289 0.0416 0.39462 0.0 1.0 1.0 255 0 0
0.00374 0.03199 0.38924 1.0 0.0 1.0 255 0 0
0.00417 0.03197 0.38908 1.0 0.0 1.0 255 0 0
0.00721 0.03383 0.38645 0.0 -1.0 1.0 255 0 0
0.00935 0.0355 0.3864 1.0 -0.0 1.0 255 0 0
0.01229 0.04291 0.38637 1.0 0.0 0.0 255 0 0
0.01096 0.04 0.38721 0.0 -1.0 1.0 255 0 0
0.00528 0.0346 0.3887 0.0 -1.0 1.0 255 0 0
0.00917 0.03907 0.38901 0.0 -1.0 1.0 255 0 0
0.00972 0.0357 0.38655 1.0 -0.0 1.0 255 0 0
0.01194 0.03869 0.38647 1.0 -1.0 1.0 255 0 0
0.00735 0.037 0.38904 1.0 -0.0 1.0 255 0 0
0.0125 0.03985 0.38648 1.0 -0.0 1.0 255 0 0
0.01259 0.04033 0.38652 1.0 -0.0 1.0 255 0 0
0.00245 0.0416 0.39459 0.0 1.0 1.0 255 0 0
0.01152 0.03919 0.38649 0.0 -1.0 1.0 255 0 0
0.00629 0.04255 0.39496 0.0 -1.0 -1.0 255 0 0
0.00666 0.03702 0.38895 0.0 -0.0 1.0 255 0 0
0.00591 0.04154 0.39527 0.0 0.0 1.0 255 0 0
0.00573 0.03582 0.38885 0.0 -0.0 1.0 255 0 0
0.00645 0.03298 0.38634 1.0 -0.0 1.0 255 0 0
0.00522 0.03532 0.38872 0.0 -0.0 1.0 255 0 0
0.00588 0.03863 0.3951 1.0 -0.0 -0.0 255 0 0
0.00672 0.04253 0.39475 0.0 -1.0 -1.0 255 0 0
0.00573 0.04016 0.3945 1.0 -0.0 -0.0 255 0 0
0.00598 0.04175 0.39407 1.0 -0.0 -1.0 255 0 0
0.00356 0.03863 0.39481 0.0 1.0 -0.0 255 0 0
0.00761 0.03358 0.38644 0.0 -1.0 1.0 255 0 0
0.00365 0.03926 0.39519 0.0 1.0 -1.0 255 0 0
0.01011 0.04081 0.38899 1.0 -0.0 1.0 255 0 0
0.0096 0.03908 0.38877 0.0 -1.0 1.0 255 0 0
0.00809 0.03807 0.38875 1.0 -0.0 1.0 255 0 0
0.00442 0.03415 0.38896 1.0 -0.0 1.0 255 0 0
0.00418 0.03362 0.38899 1.0 -0.0 1.0 255 0 0
0.00571 0.03139 0.38666 1.0 0.0 1.0 255 0 0
0.00327 0.03895 0.39494 0.0 1.0 -1.0 255 0 0
0.00626 0.03286 0.38674 1.0 -0.0 1.0 255 0 0
0.00562 0.03504 0.38892 0.0 -1.0 1.0 255 0 0
0.01041 0.04032 0.38882 1.0 -0.0 1.0 255 0 0
0.01066 0.04377 0.38886 1.0 -0.0 1.0 255 0 0
0.00983 0.03697 0.38682 1.0 -0.0 1.0 255 0 0
0.00952 0.03668 0.38669 1.0 -0.0 1.0 255 0 0
0.00859 0.03476 0.38657 1.0 -1.0 1.0 255 0 0
0.00714 0.03597 0.38884 0.0 -0.0 1.0 255 0 0
0.00413 0.03313 0.38892 1.0 -0.0 1.0 255 0 0
0.00605 0.03049 0.3868 1.0 0.0 1.0 255 0 0
0.01144 0.03941 0.3869 0.0 -1.0 1.0 255 0 0
0.00851 0.03441 0.38628 1.0 -1.0 1.0 255 0 0
0.01244 0.04199 0.38657 1.0 0.0 1.0 255 0 0
0.00962 0.0407 0.38701 1.0 1.0 -0.0 255 0 0
0.01139 0.0436 0.38838 1.0 -0.0 1.0 255 0 0
0.00806 0.03883 0.38896 0.0 -1.0 1.0 255 0 0
0.00825 0.0341 0.38665 0.0 -1.0 1.0 255 0 0
0.00781 0.03741 0.38879 1.0 -0.0 1.0 255 0 0
0.00913 0.03496 0.38671 1.0 -0.0 1.0 255 0 0
0.01044 0.04168 0.38886 1.0 -0.0 1.0 255 0 0
0.01072 0.04242 0.38891 1.0 -0.0 1.0 255 0 0
0.01115 0.03809 0.38657 1.0 -1.0 0.0 255 0 0
0.01237 0.04125 0.38683 1.0 0.0 1.0 255 0 0
0.00475 0.03835 0.39504 0.0 1.0 -0.0 255 0 0
0.00227 0.03935 0.39506 0.0 1.0 -1.0 255 0 0
0.00703 0.03668 0.38864 0.0 -0.0 1.0 255 0 0
0.00433 0.03457 0.38873 1.0 -0.0 1.0 255 0 0
0.00771 0.03836 0.38881 0.0 -0.0 1.0 255 0 0
0.00726 0.03751 0.38871 1.0 -0.0 1.0 255 0 0
0.00734 0.03708 0.38855 1.0 -0.0 1.0 255 0 0
0.00408 0.03282 0.38852 1.0 -0.0 1.0 255 0 0
0.00407 0.03401 0.38874 1.0 -0.0 1.0 255 0 0
0.00174 0.03947 0.39509 0.0 -0.0 1.0 255 0 0
0.01202 0.04197 0.38721 1.0 0.0 1.0 255 0 0
0.0061 0.03493 0.38869 0.0 -1.0 1.0 255 0 0
0.0075 0.03384 0.38685 0.0 -1.0 1.0 255 0 0
0.00872 0.03524 0.38685 1.0 -0.0 1.0 255 0 0
0.00663 0.03518 0.38869 0.0 -1.0 1.0 255 0 0
0.00934 0.03561 0.38689 1.0 -0.0 1.0 255 0 0
0.01014 0.03763 0.38673 1.0 -1.0 1.0 255 0 0
0.00865 0.03853 0.38875 0.0 -1.0 1.0 255 0 0
0.00587 0.04061 0.39457 1.0 -0.0 -0.0 255 0 0
0.00335 0.04145 0.39486 0.0 -1.0 -1.0 255 0 0
0.00568 0.04233 0.39494 0.0 -1.0 -1.0 255 0 0
0.00598 0.04201 0.39512 0.0 -0.0 -1.0 255 0 0
0.00624 0.03098 0.38677 1.0 0.0 1.0 255 0 0
0.00578 0.03266 0.38674 1.0 -0.0 1.0 255 0 0
0.00282 0.04124 0.395 0.0 1.0 1.0 255 0 0
0.00477 0.03883 0.39538 0.0 1.0 -1.0 255 0 0
0.01184 0.04342 0.38685 1.0 0.0 1.0 255 0 0
0.01275 0.04148 0.38674 1.0 0.0 1.0 255 0 0
0.01128 0.03911 0.38603 0.0 1.0 -1.0 255 0 0
0.00993 0.04017 0.38632 1.0 1.0 -0.0 255 0 0
0.00405 0.03957 0.39541 0.0 1.0 -1.0 255 0 0
0.01139 0.03841 0.38679 1.0 -1.0 1.0 255 0 0
0.00701 0.03351 0.38675 0.0 -1.0 1.0 255 0 0
0.00408 0.04138 0.39514 0.0 -1.0 -1.0 255 0 0
0.00156 0.0399 0.39524 0.0 -0.0 1.0 255 0 0
0.00574 0.03211 0.38689 1.0 -0.0 1.0 255 0 0
0.01041 0.03839 0.38711 1.0 -0.0 1.0 255 0 0
0.01178 0.03899 0.38688 1.0 -1.0 1.0 255 0 0
0.00271 0.0395 0.39517 0.0 0.0 -1.0 255 0 0
0.00491 0.03406 0.38855 1.0 -0.0 1.0 255 0 0
0.00986 0.03956 0.38857 1.0 -0.0 1.0 255 0 0
0.00448 0.03338 0.38861 1.0 -0.0 1.0 255 0 0
0.00321 0.03941 0.39519 0.0 1.0 -1.0 255 0 0
0.00597 0.03323 0.38683 1.0 -1.0 1.0 255 0 0
0.00657 0.03393 0.38696 0.0 -1.0 1.0 255 0 0
0.01241 0.04237 0.38688 1.0 0.0 1.0 255 0 0
0.00794 0.03635 0.38843 1.0 -0.0 1.0 255 0 0
0.00753 0.03593 0.38855 0.0 -0.0 1.0 255 0 0
0.00921 0.03638 0.38691 1.0 -0.0 1.0 255 0 0
0.00541 0.03164 0.38696 1.0 0.0 1.0 255 0 0
0.01199 0.03947 0.38692 1.0 -0.0 1.0 255 0 0
0.00776 0.0378 0.38848 1.0 -0.0 1.0 255 0 0
0.00663 0.03637 0.38876 0.0 -0.0 1.0 255 0 0
0.0065 0.03576 0.3885 0.0 -0.0 1.0 255 0 0
0.00511 0.03855 0.39539 0.0 1.0 -1.0 255 0 0
0.01136 0.04307 0.38824 1.0 -0.0 1.0 255 0 0
0.00458 0.03128 0.3887 1.0 0.0 1.0 255 0 0
0.01094 0.04197 0.38851 1.0 -0.0 1.0 255 0 0
0.01029 0.03973 0.38843 1.0 -0.0 1.0 255 0 0
0.01201 0.04281 0.38741 1.0 0.0 1.0 255 0 0
0.01228 0.04292 0.38698 1.0 0.0 1.0 255 0 0
0.00564 0.03522 0.38847 0.0 -1.0 1.0 255 0 0
0.01093 0.04314 0.38843 1.0 -0.0 1.0 255 0 0
0.00506 0.03252 0.38738 1.0 -0.0 1.0 255 0 0
0.00963 0.03736 0.38712 1.0 -0.0 1.0 255 0 0
0.01103 0.04098 0.38839 1.0 -0.0 1.0 255 0 0
0.00208 0.03789 0.39229 1.0 -0.0 1.0 255 0 0
0.0042 0.03234 0.38845 1.0 0.0 1.0 255 0 0
0.011 0.04445 0.38849 1.0 -0.0 1.0 255 0 0
0.00702 0.03589 0.38833 0.0 -0.0 1.0 255 0 0
0.00838 0.03835 0.38838 0.0 -1.0 1.0 255 0 0
0.01098 0.0384 0.38714 1.0 -0.0 1.0 255 0 0
0.0053 0.03479 0.38831 0.0 -1.0 1.0 255 0 0
0.00813 0.03434 0.38703 0.0 -1.0 1.0 255 0 0
0.00443 0.03373 0.38833 1.0 -0.0 1.0 255 0 0
0.00859 0.03607 0.38735 1.0 -0.0 1.0 255 0 0
0.00524 0.04153 0.39534 0.0 -1.0 -1.0 255 0 0
0.01106 0.03954 0.38656 0.0 1.0 -1.0 255 0 0
0.0107 0.03994 0.38684 1.0 1.0 -0.0 255 0 0
0.01131 0.03884 0.38701 1.0 -0.0 1.0 255 0 0
0.0076 0.03434 0.38681 0.0 -1.0 1.0 255 0 0
0.0074 0.03549 0.38847 0.0 -0.0 1.0 255 0 0
0.00653 0.0347 0.38832 0.0 -1.0 1.0 255 0 0
0.00818 0.03714 0.38845 1.0 -0.0 1.0 255 0 0
0.00427 0.03188 0.38854 1.0 0.0 1.0 255 0 0
0.00546 0.03835 0.39515 0.0 0.0 -1.0 255 0 0
0.00567 0.03853 0.39554 0.0 -1.0 1.0 255 0 0
0.00566 0.03444 0.38844 0.0 -1.0 1.0 255 0 0
0.0077 0.03432 0.38732 0.0 -1.0 1.0 255 0 0
0.00839 0.03469 0.38719 1.0 -1.0 1.0 255 0 0
0.01196 0.03989 0.38717 1.0 -0.0 1.0 255 0 0
0.0093 0.03784 0.38735 1.0 -0.0 1.0 255 0 0
0.00631 0.03535 0.38832 0.0 -1.0 1.0 255 0 0
0.00449 0.03209 0.38809 1.0 0.0 1.0 255 0 0
0.00433 0.03314 0.38825 1.0 -0.0 1.0 255 0 0
0.00754 0.03658 0.38829 1.0 -0.0 1.0 255 0 0
0.00197 0.0401 0.39533 0.0 -0.0 1.0 255 0 0
0.00266 0.04001 0.39534 0.0 0.0 -1.0 255 0 0
0.00594 0.03089 0.38714 1.0 0.0 1.0 255 0 0
0.00518 0.03138 0.38735 1.0 0.0 1.0 255 0 0
0.00209 0.04067 0.3953 0.0 -0.0 -1.0 255 0 0
0.00828 0.03515 0.38712 1.0 -1.0 1.0 255 0 0
0.00246 0.04094 0.39517 0.0 0.0 1.0 255 0 0
0.00303 0.04055 0.39541 0.0 0.0 1.0 255 0 0
0.01106 0.04149 0.38832 1.0 -0.0 1.0 255 0 0
0.00907 0.03902 0.38858 0.0 -1.0 1.0 255 0 0
0.01101 0.04055 0.38833 1.0 -0.0 1.0 255 0 0
0.01012 0.038 0.38729 0.0 -1.0 1.0 255 0 0
0.00557 0.03245 0.38717 1.0 -0.0 1.0 255 0 0
0.01204 0.04049 0.38731 1.0 -0.0 1.0 255 0 0
0.00591 0.03334 0.38736 1.0 -0.0 1.0 255 0 0
0.00484 0.04014 0.39578 0.0 0.0 1.0 255 0 0
0.01061 0.03882 0.38749 1.0 -0.0 1.0 255 0 0
0.00932 0.04132 0.3884 0.0 -1.0 0.0 255 0 0
