ply
format ascii 1.0
element vertex 1043
property float x
property float y
property float z
property float nx
property float ny
property float nz
property uchar red
property uchar green
property uchar blue
element face 0
end_header
-0.00242 0.03676 0.38062 1.0 0.0 -1.0 255 0 0
-0.01078 0.04111 0.39009 0.0 1.0 0.0 255 0 0
-0.00542 0.03656 0.38006 1.0 -0.0 0.0 255 0 0
-0.02285 0.04294 0.39015 0.0 1.0 -0.0 255 0 0
-0.00444 0.03392 0.38081 1.0 1.0 0.0 255 0 0
-0.00265 0.0375 0.38072 1.0 0.0 -1.0 255 0 0
-0.00184 0.0351 0.38081 1.0 0.0 -0.0 255 0 0
-0.00782 0.0361 0.38996 1.0 -0.0 0.0 255 0 0
-0.01712 0.04237 0.38996 0.0 1.0 0.0 255 0 0
-0.01958 0.0418 0.39013 0.0 1.0 -0.0 255 0 0
-0.02011 0.04258 0.39742 0.0 1.0 -0.0 255 0 0
-0.00305 0.03818 0.38069 0.0 0.0 -1.0 255 0 0
-0.01221 0.02953 0.39009 1.0 -1.0 -0.0 255 0 0
-0.00382 0.03948 0.38087 0.0 -1.0 1.0 255 0 0
-0.01077 0.03162 0.39014 1.0 -1.0 0.0 255 0 0
-0.00812 0.03528 0.39004 1.0 -0.0 0.0 255 0 0
-0.00542 0.03738 0.37995 1.0 -0.0 0.0 255 0 0
-0.00491 0.03775 0.38152 1.0 -0.0 0.0 255 0 0
-0.00511 0.03552 0.38078 1.0 0.0 -0.0 255 0 0
-0.02166 0.04397 0.397 1.0 1.0 -0.0 255 0 0
-0.01704 0.02425 0.39047 1.0 -1.0 -0.0 255 0 0
-0.00963 0.03355 0.38948 1.0 -0.0 -0.0 255 0 0
-0.00325 0.03896 0.3809 0.0 0.0 -1.0 255 0 0
-0.01234 0.04001 0.39012 0.0 1.0 0.0 255 0 0
-0.00992 0.03302 0.39025 1.0 -1.0 0.0 255 0 0
-0.00404 0.04031 0.38152 1.0 -1.0 1.0 255 0 0
-0.00273 0.03245 0.38199 0.0 -1.0 -0.0 255 0 0
-0.00438 0.03987 0.38113 1.0 -1.0 0.0 255 0 0
-0.00718 0.03865 0.38964 1.0 -0.0 0.0 255 0 0
-0.0075 0.03932 0.39046 1.0 0.0 1.0 255 0 0
-0.00197 0.03688 0.38114 1.0 0.0 -1.0 255 0 0
-0.0169 0.04166 0.39763 0.0 1.0 -0.0 255 0 0
-0.01326 0.02831 0.38989 1.0 -1.0 -0.0 255 0 0
-0.0144 0.02715 0.38984 1.0 -1.0 -0.0 255 0 0
-0.02597 0.04685 0.38999 1.0 0.0 0.0 255 0 0
-0.0156 0.02578 0.39035 1.0 -1.0 -0.0 255 0 0
-0.01274 0.04172 0.38963 0.0 1.0 0.0 255 0 0
-0.01483 0.02595 0.39017 1.0 -1.0 -0.0 255 0 0
-0.00917 0.0344 0.38999 1.0 -0.0 0.0 255 0 0
-0.01802 0.04244 0.39051 0.0 1.0 0.0 255 0 0
-0.01242 0.02838 0.39038 1.0 -1.0 -0.0 255 0 0
-0.0165 0.02491 0.39028 1.0 -1.0 -0.0 255 0 0
-0.00389 0.0333 0.38073 1.0 1.0 0.0 255 0 0
-0.00183 0.03317 0.38164 1.0 -1.0 -0.0 255 0 0
-0.00201 0.03772 0.38133 1.0 0.0 -1.0 255 0 0
-0.0176 0.02386 0.38974 1.0 -1.0 -0.0 255 0 0
-0.02195 0.04433 0.39781 1.0 1.0 -1.0 255 0 0
-0.01649 0.04191 0.39713 0.0 1.0 -0.0 255 0 0
-0.01585 0.0416 0.39658 0.0 1.0 -0.0 255 0 0
-0.00283 0.03949 0.38135 0.0 0.0 -1.0 255 0 0
-0.02342 0.04325 0.39037 0.0 1.0 -0.0 255 0 0
-0.00177 0.03391 0.38136 1.0 -0.0 -0.0 255 0 0
-0.00213 0.0384 0.38137 1.0 0.0 -1.0 255 0 0
-0.02024 0.04206 0.39047 0.0 1.0 -0.0 255 0 0
-0.00239 0.03262 0.38142 0.0 -1.0 -0.0 255 0 0
-0.02292 0.0441 0.38974 0.0 1.0 0.0 255 0 0
-0.00166 0.03619 0.38141 1.0 0.0 -0.0 255 0 0
-0.01991 0.04299 0.39006 0.0 1.0 -0.0 255 0 0
-0.0121 0.02878 0.38982 1.0 -1.0 -0.0 255 0 0
-0.00838 0.03597 0.38959 1.0 -0.0 0.0 255 0 0
-0.00159 0.03536 0.38169 1.0 -0.0 -0.0 255 0 0
-0.00464 0.03672 0.38253 1.0 0.0 -0.0 255 0 0
-0.01447 0.02692 0.39052 1.0 -1.0 -0.0 255 0 0
-0.00304 0.03237 0.38271 0.0 -1.0 -0.0 255 0 0
-0.00455 0.03882 0.38226 1.0 0.0 1.0 255 0 0
-0.00475 0.03437 0.38044 1.0 1.0 -0.0 255 0 0
-0.00525 0.03619 0.38063 1.0 0.0 -0.0 255 0 0
-0.00507 0.03664 0.38126 1.0 0.0 -0.0 255 0 0
-0.02558 0.04605 0.38998 1.0 0.0 0.0 255 0 0
-0.01148 0.02951 0.38988 1.0 -1.0 -0.0 255 0 0
-0.01644 0.04077 0.3906 0.0 1.0 0.0 255 0 0
-0.01529 0.04053 0.39045 0.0 1.0 0.0 255 0 0
-0.02474 0.0445 0.38971 1.0 1.0 0.0 255 0 0
-0.01937 0.03287 0.3816 0.0 -0.0 -1.0 255 0 0
-0.01846 0.03435 0.38168 0.0 -0.0 -1.0 255 0 0
-0.01184 0.04015 0.38955 0.0 1.0 0.0 255 0 0
-0.01812 0.04252 0.38966 0.0 1.0 -0.0 255 0 0
-0.01932 0.03434 0.38167 0.0 0.0 -1.0 255 0 0
-0.01543 0.04166 0.3974 0.0 1.0 -0.0 255 0 0
-0.01897 0.03356 0.38163 0.0 -0.0 -1.0 255 0 0
-0.00762 0.03791 0.38992 1.0 -0.0 0.0 255 0 0
-0.02485 0.04638 0.3897 1.0 0.0 0.0 255 0 0
-0.01879 0.03231 0.38174 0.0 -0.0 -1.0 255 0 0
-0.02063 0.04317 0.39665 0.0 1.0 -0.0 255 0 0
-0.01799 0.03385 0.38172 0.0 -0.0 -1.0 255 0 0
-0.02437 0.04569 0.38966 1.0 1.0 0.0 255 0 0
-0.01945 0.03218 0.38166 0.0 -0.0 -1.0 255 0 0
-0.01128 0.02982 0.39051 1.0 -1.0 0.0 255 0 0
-0.01776 0.03452 0.38178 0.0 -0.0 -1.0 255 0 0
-0.01746 0.04157 0.39728 0.0 1.0 -0.0 255 0 0
-0.00143 0.03814 0.38177 1.0 -0.0 -1.0 255 0 0
-0.02266 0.04413 0.39726 1.0 1.0 -1.0 255 0 0
-0.00842 0.03459 0.3899 1.0 -0.0 0.0 255 0 0
-0.00987 0.03185 0.38986 1.0 -1.0 -0.0 255 0 0
-0.02537 0.04514 0.39048 1.0 0.0 0.0 255 0 0
-0.01628 0.04129 0.39708 0.0 1.0 -0.0 255 0 0
-0.02354 0.04342 0.38955 0.0 1.0 0.0 255 0 0
-0.01964 0.03125 0.38179 0.0 -0.0 -1.0 255 0 0
-0.02019 0.03197 0.38175 0.0 -0.0 -1.0 255 0 0
-0.01541 0.02618 0.38978 1.0 -1.0 -0.0 255 0 0
-0.01657 0.02447 0.38976 1.0 -1.0 -0.0 255 0 0
-0.02269 0.04404 0.39075 0.0 1.0 -0.0 255 0 0
-0.01871 0.03135 0.38191 0.0 -0.0 -1.0 255 0 0
-0.0081 0.03684 0.39066 1.0 -0.0 0.0 255 0 0
-0.01817 0.03509 0.38174 0.0 0.0 -1.0 255 0 0
-0.02094 0.0322 0.38185 0.0 0.0 1.0 255 0 0
-0.02136 0.04307 0.39712 0.0 1.0 -0.0 255 0 0
-0.01411 0.04163 0.39027 0.0 1.0 0.0 255 0 0
-0.01815 0.03271 0.38178 0.0 -0.0 -1.0 255 0 0
-0.01069 0.0402 0.38877 0.0 -1.0 -0.0 255 0 0
-0.01578 0.04094 0.38982 0.0 1.0 0.0 255 0 0
-0.02209 0.04277 0.39054 0.0 1.0 -0.0 255 0 0
-0.01866 0.04156 0.3897 0.0 1.0 -0.0 255 0 0
-0.00795 0.04032 0.38958 1.0 1.0 0.0 255 0 0
-0.02114 0.04224 0.38986 0.0 1.0 -0.0 255 0 0
-0.02032 0.04299 0.38946 0.0 1.0 -0.0 255 0 0
-0.01885 0.04248 0.39682 0.0 1.0 -0.0 255 0 0
-0.0139 0.0277 0.38972 1.0 -1.0 -0.0 255 0 0
-0.01714 0.03346 0.38189 0.0 -0.0 -1.0 255 0 0
-0.01534 0.04216 0.38947 0.0 1.0 0.0 255 0 0
-0.01618 0.04227 0.38946 0.0 1.0 0.0 255 0 0
-0.02556 0.04637 0.38931 1.0 0.0 0.0 255 0 0
-0.02106 0.03139 0.38189 0.0 -0.0 -1.0 255 0 0
-0.0138 0.02762 0.39045 1.0 -1.0 -0.0 255 0 0
-0.01719 0.0352 0.38187 0.0 0.0 -1.0 255 0 0
-0.01737 0.0359 0.38192 0.0 0.0 -1.0 255 0 0
-0.00936 0.04062 0.39036 0.0 1.0 0.0 255 0 0
-0.01306 0.02839 0.39057 1.0 -1.0 -0.0 255 0 0
-0.00174 0.03446 0.38193 1.0 -0.0 -0.0 255 0 0
-0.00883 0.03511 0.39047 1.0 -0.0 0.0 255 0 0
-0.00718 0.03953 0.38983 1.0 0.0 0.0 255 0 0
-0.00747 0.03714 0.38963 1.0 -0.0 0.0 255 0 0
-0.02043 0.04193 0.38939 0.0 1.0 -0.0 255 0 0
-0.00989 0.03196 0.3905 1.0 -1.0 0.0 255 0 0
-0.01203 0.04154 0.38973 0.0 1.0 0.0 255 0 0
-0.02177 0.04244 0.38954 1.0 1.0 -0.0 255 0 0
-0.00483 0.03842 0.38147 1.0 -0.0 0.0 255 0 0
-0.00469 0.03929 0.38142 1.0 -1.0 0.0 255 0 0
-0.01363 0.04183 0.38969 0.0 1.0 0.0 255 0 0
-0.025 0.0445 0.39063 1.0 1.0 0.0 255 0 0
-0.01661 0.034 0.38193 0.0 -0.0 -1.0 255 0 0
-0.01942 0.03011 0.38211 0.0 -0.0 -1.0 255 0 0
-0.01893 0.03065 0.38202 0.0 -0.0 -1.0 255 0 0
-0.01105 0.03007 0.38962 1.0 -1.0 -0.0 255 0 0
-0.02377 0.04536 0.39641 1.0 1.0 -0.0 255 0 0
-0.00932 0.03269 0.38961 1.0 -1.0 0.0 255 0 0
-0.01987 0.04287 0.3968 0.0 1.0 -0.0 255 0 0
-0.00867 0.03396 0.38962 1.0 -0.0 0.0 255 0 0
-0.00889 0.03374 0.39058 1.0 -0.0 0.0 255 0 0
-0.01789 0.03155 0.38203 0.0 -0.0 -1.0 255 0 0
-0.01033 0.03112 0.38945 1.0 -1.0 -0.0 255 0 0
-0.01461 0.02633 0.38938 1.0 -1.0 -0.0 255 0 0
-0.01749 0.03222 0.38198 0.0 -0.0 -1.0 255 0 0
-0.01092 0.03993 0.38964 0.0 1.0 0.0 255 0 0
-0.01367 0.04072 0.38921 0.0 1.0 -0.0 255 0 0
-0.01678 0.03255 0.38203 0.0 -0.0 -1.0 255 0 0
-0.00755 0.03823 0.38856 1.0 -0.0 0.0 255 0 0
-0.01154 0.03047 0.39037 1.0 -1.0 -0.0 255 0 0
-0.02206 0.04364 0.38955 0.0 1.0 -0.0 255 0 0
-0.02112 0.04326 0.38939 0.0 1.0 -0.0 255 0 0
-0.01566 0.02544 0.38909 1.0 -1.0 -0.0 255 0 0
-0.02098 0.03055 0.38198 0.0 -0.0 -1.0 255 0 0
-0.01634 0.03331 0.38201 0.0 -0.0 -1.0 255 0 0
-0.02035 0.03011 0.38202 0.0 -0.0 -1.0 255 0 0
-0.02529 0.04568 0.38952 1.0 0.0 0.0 255 0 0
-0.01608 0.03477 0.38201 0.0 0.0 -1.0 255 0 0
-0.01643 0.0354 0.38203 0.0 0.0 -1.0 255 0 0
-0.01938 0.04188 0.39677 0.0 1.0 -0.0 255 0 0
-0.01491 0.04116 0.39695 0.0 1.0 -0.0 255 0 0
-0.0125 0.02839 0.38942 1.0 -1.0 -0.0 255 0 0
-0.00143 0.03625 0.38237 1.0 -0.0 -0.0 255 0 0
-0.01029 0.04135 0.38945 0.0 1.0 0.0 255 0 0
-0.00872 0.03524 0.3895 1.0 -0.0 0.0 255 0 0
-0.02327 0.0451 0.39682 1.0 1.0 -0.0 255 0 0
-0.02076 0.03278 0.38215 0.0 -0.0 1.0 255 0 0
-0.01311 0.04135 0.39057 0.0 1.0 0.0 255 0 0
-0.01951 0.03496 0.38202 0.0 -0.0 1.0 255 0 0
-0.01008 0.03274 0.38939 1.0 -1.0 -0.0 255 0 0
-0.00184 0.0338 0.38214 1.0 -0.0 -0.0 255 0 0
-0.00934 0.04111 0.38934 0.0 1.0 0.0 255 0 0
-0.01984 0.03311 0.38214 0.0 -0.0 -1.0 255 0 0
-0.01627 0.03665 0.38218 0.0 0.0 -1.0 255 0 0
-0.01142 0.04104 0.39056 0.0 1.0 0.0 255 0 0
-0.01886 0.03392 0.38223 0.0 -0.0 -1.0 255 0 0
-0.01948 0.03375 0.38214 0.0 -0.0 -1.0 255 0 0
-0.01791 0.04135 0.38911 0.0 1.0 0.0 255 0 0
-0.01554 0.03539 0.38214 0.0 0.0 -1.0 255 0 0
-0.01453 0.04085 0.38943 0.0 1.0 -0.0 255 0 0
-0.01558 0.0337 0.3821 0.0 -0.0 -1.0 255 0 0
-0.01511 0.04103 0.38896 0.0 1.0 0.0 255 0 0
-0.0147 0.03382 0.38222 0.0 -0.0 -1.0 255 0 0
-0.01946 0.04164 0.38927 0.0 1.0 -0.0 255 0 0
-0.01642 0.02523 0.3896 1.0 -1.0 -0.0 255 0 0
-0.01408 0.0279 0.38904 1.0 -1.0 -0.0 255 0 0
-0.02429 0.04401 0.38956 1.0 1.0 0.0 255 0 0
-0.00128 0.03719 0.38213 1.0 -0.0 -0.0 255 0 0
-0.01006 0.0395 0.38981 0.0 1.0 0.0 255 0 0
-0.00933 0.03922 0.39004 0.0 1.0 -0.0 255 0 0
-0.00834 0.03905 0.39004 1.0 0.0 1.0 255 0 0
-0.00823 0.0392 0.39093 1.0 0.0 1.0 255 0 0
-0.01954 0.02944 0.38231 0.0 -0.0 -1.0 255 0 0
-0.01981 0.04278 0.38907 0.0 1.0 -0.0 255 0 0
-0.01273 0.02921 0.38935 1.0 -1.0 -0.0 255 0 0
-0.01344 0.02746 0.38918 1.0 -1.0 -0.0 255 0 0
-0.01986 0.03236 0.38224 0.0 -0.0 -1.0 255 0 0
-0.016 0.03183 0.38222 0.0 -0.0 -1.0 255 0 0
-0.01537 0.02652 0.38911 1.0 -1.0 -0.0 255 0 0
-0.02258 0.04454 0.39665 1.0 1.0 -0.0 255 0 0
-0.01514 0.03284 0.38222 0.0 -0.0 -1.0 255 0 0
-0.0176 0.03059 0.38223 0.0 -0.0 -1.0 255 0 0
-0.01729 0.03122 0.38215 0.0 -0.0 -1.0 255 0 0
-0.01355 0.02715 0.39082 1.0 -1.0 -0.0 255 0 0
-0.01849 0.03477 0.38227 0.0 0.0 -1.0 255 0 0
-0.01504 0.0348 0.38219 0.0 0.0 -1.0 255 0 0
-0.01535 0.03614 0.38227 0.0 0.0 -1.0 255 0 0
-0.00474 0.04012 0.38191 1.0 -0.0 1.0 255 0 0
-0.01413 0.02683 0.38916 1.0 -1.0 -0.0 255 0 0
-0.0204 0.03363 0.38195 0.0 -0.0 1.0 255 0 0
-0.00776 0.0383 0.3893 1.0 -0.0 1.0 255 0 0
-0.019 0.03562 0.38209 0.0 0.0 -1.0 255 0 0
-0.00518 0.03764 0.38073 1.0 -0.0 -0.0 255 0 0
-0.00782 0.0407 0.38892 1.0 1.0 1.0 255 0 0
-0.00439 0.03394 0.38182 1.0 0.0 -0.0 255 0 0
-0.00472 0.03455 0.38124 1.0 0.0 -0.0 255 0 0
-0.00447 0.03475 0.38299 1.0 0.0 -0.0 255 0 0
-0.00674 0.03881 0.38911 1.0 -0.0 0.0 255 0 0
-0.02123 0.02912 0.38236 0.0 -0.0 -1.0 255 0 0
-0.01145 0.03078 0.38922 1.0 -1.0 -0.0 255 0 0
-0.01045 0.03107 0.39047 1.0 -1.0 0.0 255 0 0
-0.02275 0.04362 0.39656 1.0 1.0 -0.0 255 0 0
-0.00732 0.03705 0.38895 1.0 -0.0 0.0 255 0 0
-0.00796 0.03686 0.3891 1.0 -0.0 0.0 255 0 0
-0.02513 0.04687 0.38924 1.0 0.0 0.0 255 0 0
-0.01326 0.04202 0.38913 0.0 -1.0 -0.0 255 0 0
-0.02003 0.03149 0.38235 0.0 -0.0 -1.0 255 0 0
-0.01713 0.04123 0.39672 0.0 1.0 -0.0 255 0 0
-0.01556 0.04089 0.39639 0.0 1.0 -0.0 255 0 0
-0.01624 0.031 0.38234 0.0 -0.0 -1.0 255 0 0
-0.00727 0.03999 0.38924 1.0 1.0 0.0 255 0 0
-0.01827 0.03037 0.38222 0.0 -0.0 -1.0 255 0 0
-0.02328 0.04432 0.39678 1.0 1.0 -0.0 255 0 0
-0.00837 0.03612 0.39066 1.0 -0.0 0.0 255 0 0
-0.01864 0.04251 0.38919 0.0 1.0 -0.0 255 0 0
-0.02351 0.04501 0.38883 1.0 1.0 0.0 255 0 0
-0.01481 0.03561 0.3823 0.0 0.0 -1.0 255 0 0
-0.0141 0.03535 0.38241 0.0 0.0 -1.0 255 0 0
-0.01458 0.04213 0.38926 0.0 -1.0 -0.0 255 0 0
-0.01865 0.04158 0.3966 0.0 1.0 -0.0 255 0 0
-0.02245 0.04278 0.38928 1.0 1.0 0.0 255 0 0
-0.01427 0.03285 0.38236 0.0 -0.0 -1.0 255 0 0
-0.01049 0.0321 0.38915 1.0 -1.0 -0.0 255 0 0
-0.01444 0.03455 0.38229 0.0 -0.0 -1.0 255 0 0
-0.01546 0.03132 0.3824 0.0 -0.0 -1.0 255 0 0
-0.01908 0.03282 0.38229 0.0 -0.0 -1.0 255 0 0
-0.01831 0.03328 0.38242 0.0 -0.0 -1.0 255 0 0
-0.01943 0.04292 0.39059 0.0 1.0 -0.0 255 0 0
-0.0147 0.03228 0.38233 0.0 -0.0 -1.0 255 0 0
-0.01886 0.02967 0.38234 0.0 -0.0 -1.0 255 0 0
-0.01803 0.0421 0.39648 0.0 1.0 -0.0 255 0 0
-0.00933 0.03264 0.38891 1.0 -0.0 -0.0 255 0 0
-0.00962 0.03281 0.38247 1.0 -1.0 0.0 255 0 0
-0.00912 0.03983 0.3889 0.0 1.0 0.0 255 0 0
-0.01019 0.04015 0.38819 0.0 1.0 0.0 255 0 0
-0.0097 0.03358 0.38234 0.0 0.0 1.0 255 0 0
-0.01008 0.03976 0.38911 0.0 1.0 0.0 255 0 0
-0.01481 0.04083 0.3877 0.0 1.0 -0.0 255 0 0
-0.01616 0.04111 0.38915 0.0 1.0 0.0 255 0 0
-0.01789 0.04131 0.39654 0.0 1.0 -0.0 255 0 0
-0.02262 0.0441 0.38887 1.0 1.0 0.0 255 0 0
-0.01828 0.03573 0.3823 0.0 0.0 -1.0 255 0 0
-0.02384 0.04468 0.39639 1.0 1.0 -0.0 255 0 0
-0.01362 0.03357 0.38243 0.0 -0.0 -1.0 255 0 0
-0.00777 0.03558 0.38873 1.0 -0.0 0.0 255 0 0
-0.02189 0.04297 0.39647 1.0 1.0 -0.0 255 0 0
-0.01378 0.03439 0.38238 0.0 -0.0 -1.0 255 0 0
-0.01107 0.03136 0.38901 1.0 -1.0 -0.0 255 0 0
-0.01733 0.02392 0.38904 1.0 -1.0 -0.0 255 0 0
-0.01774 0.04098 0.39577 0.0 1.0 -0.0 255 0 0
-0.0082 0.03468 0.38883 1.0 -0.0 0.0 255 0 0
-0.01544 0.03688 0.38237 0.0 0.0 -1.0 255 0 0
-0.01394 0.04097 0.39623 0.0 1.0 -0.0 255 0 0
-0.00799 0.03462 0.3824 0.0 -0.0 -1.0 255 0 0
-0.00721 0.03547 0.38241 0.0 -0.0 -1.0 255 0 0
-0.00971 0.0412 0.38249 0.0 1.0 0.0 255 0 0
-0.0181 0.03666 0.38228 0.0 0.0 -1.0 255 0 0
-0.01748 0.03727 0.38246 0.0 0.0 -1.0 255 0 0
-0.01049 0.03303 0.38237 0.0 -0.0 -1.0 255 0 0
-0.01713 0.02998 0.38247 0.0 -0.0 -1.0 255 0 0
-0.01073 0.04172 0.38885 0.0 1.0 1.0 255 0 0
-0.02003 0.02876 0.38252 0.0 -0.0 -1.0 255 0 0
-0.01654 0.0303 0.38247 0.0 -0.0 -1.0 255 0 0
-0.01764 0.04239 0.38905 0.0 1.0 -0.0 255 0 0
-0.02298 0.04459 0.39609 1.0 1.0 -0.0 255 0 0
-0.00836 0.04107 0.38887 0.0 1.0 1.0 255 0 0
-0.01394 0.03155 0.38255 0.0 0.0 1.0 255 0 0
-0.02122 0.04215 0.38909 0.0 1.0 -0.0 255 0 0
-0.0202 0.03076 0.38249 0.0 -0.0 -1.0 255 0 0
-0.01216 0.04121 0.3905 0.0 1.0 0.0 255 0 0
-0.0088 0.03503 0.38251 0.0 -0.0 1.0 255 0 0
-0.02201 0.04368 0.39584 1.0 1.0 -0.0 255 0 0
-0.0184 0.03249 0.3825 0.0 -0.0 -1.0 255 0 0
-0.01672 0.0246 0.38882 1.0 -1.0 -0.0 255 0 0
-0.00808 0.03545 0.38245 0.0 -0.0 1.0 255 0 0
-0.02464 0.04475 0.38908 1.0 1.0 0.0 255 0 0
-0.01909 0.03144 0.38251 0.0 -0.0 -1.0 255 0 0
-0.01754 0.03453 0.38251 0.0 -0.0 -1.0 255 0 0
-0.01464 0.04067 0.39605 0.0 1.0 -0.0 255 0 0
-0.02348 0.04346 0.39107 0.0 1.0 -0.0 255 0 0
-0.01763 0.03536 0.38243 0.0 0.0 -1.0 255 0 0
-0.02127 0.04265 0.39657 0.0 1.0 -0.0 255 0 0
-0.0159 0.03742 0.38237 0.0 0.0 -1.0 255 0 0
-0.01469 0.03661 0.38248 0.0 0.0 -1.0 255 0 0
-0.01293 0.02802 0.38895 1.0 -1.0 -0.0 255 0 0
-0.0127 0.04059 0.38911 0.0 1.0 0.0 255 0 0
-0.01608 0.04382 0.38244 0.0 1.0 1.0 255 0 0
-0.01145 0.0404 0.38886 0.0 1.0 -0.0 255 0 0
-0.00761 0.03893 0.38869 1.0 0.0 0.0 255 0 0
-0.00775 0.03767 0.38896 1.0 -0.0 0.0 255 0 0
-0.01345 0.03511 0.38249 0.0 0.0 -1.0 255 0 0
-0.02026 0.04174 0.38877 0.0 1.0 -0.0 255 0 0
-0.02181 0.0436 0.38887 0.0 1.0 0.0 255 0 0
-0.0113 0.03257 0.38246 0.0 -0.0 1.0 255 0 0
-0.01239 0.031 0.38244 0.0 -0.0 -1.0 255 0 0
-0.01195 0.03148 0.38245 0.0 -0.0 -1.0 255 0 0
-0.00881 0.0351 0.38885 1.0 -0.0 0.0 255 0 0
-0.00866 0.03377 0.38884 1.0 -0.0 -0.0 255 0 0
-0.01191 0.03035 0.38897 1.0 -1.0 -0.0 255 0 0
-0.02071 0.04214 0.39615 0.0 1.0 -0.0 255 0 0
-0.01754 0.03365 0.38256 0.0 -0.0 -1.0 255 0 0
-0.01784 0.02418 0.38872 1.0 -1.0 -0.0 255 0 0
-0.01414 0.04137 0.39093 0.0 1.0 0.0 255 0 0
-0.02232 0.04419 0.39171 0.0 1.0 -0.0 255 0 0
-0.01288 0.03402 0.38254 0.0 -0.0 -1.0 255 0 0
-0.0127 0.03475 0.38255 0.0 0.0 -1.0 255 0 0
-0.0102 0.03135 0.38881 1.0 -1.0 -0.0 255 0 0
-0.01523 0.0402 0.39147 0.0 1.0 0.0 255 0 0
-0.01949 0.03069 0.38263 0.0 -0.0 -1.0 255 0 0
-0.01195 0.03974 0.39075 0.0 1.0 0.0 255 0 0
-0.01289 0.03557 0.38262 0.0 0.0 -1.0 255 0 0
-0.01336 0.03231 0.38255 0.0 0.0 -1.0 255 0 0
-0.0208 0.04311 0.3886 0.0 1.0 0.0 255 0 0
-0.01475 0.04134 0.39624 0.0 1.0 -0.0 255 0 0
-0.01233 0.04213 0.38845 0.0 1.0 0.0 255 0 0
-0.02117 0.0432 0.39603 0.0 1.0 -0.0 255 0 0
-0.01338 0.02879 0.3888 1.0 -1.0 -0.0 255 0 0
-0.01354 0.03591 0.38255 0.0 0.0 -1.0 255 0 0
-0.02001 0.04188 0.39622 0.0 1.0 -0.0 255 0 0
-0.01323 0.03108 0.38255 0.0 -0.0 -1.0 255 0 0
-0.01431 0.0309 0.38259 0.0 0.0 1.0 255 0 0
-0.01285 0.03169 0.38254 0.0 0.0 -1.0 255 0 0
-0.01517 0.02606 0.38859 1.0 -1.0 -0.0 255 0 0
-0.00952 0.04013 0.38822 0.0 -1.0 -0.0 255 0 0
-0.01396 0.04221 0.38854 0.0 -1.0 0.0 255 0 0
-0.012 0.03255 0.38256 0.0 0.0 -1.0 255 0 0
-0.01345 0.0408 0.38785 0.0 -1.0 -0.0 255 0 0
-0.00799 0.04039 0.3826 0.0 1.0 0.0 255 0 0
-0.01842 0.04128 0.38864 0.0 1.0 -0.0 255 0 0
-0.01904 0.02361 0.38746 1.0 -1.0 -0.0 255 0 0
-0.01118 0.04185 0.38257 0.0 1.0 0.0 255 0 0
-0.01008 0.03227 0.38253 1.0 -1.0 0.0 255 0 0
-0.00645 0.03929 0.38849 1.0 0.0 1.0 255 0 0
-0.02191 0.02932 0.38264 0.0 0.0 1.0 255 0 0
-0.00671 0.03822 0.38866 1.0 -0.0 0.0 255 0 0
-0.02171 0.03032 0.38242 0.0 -0.0 -1.0 255 0 0
-0.0103 0.04162 0.38241 0.0 1.0 0.0 255 0 0
-0.0067 0.03595 0.38257 0.0 -1.0 1.0 255 0 0
-0.01391 0.02722 0.38857 1.0 -1.0 -0.0 255 0 0
-0.00444 0.03722 0.38304 1.0 0.0 -0.0 255 0 0
-0.00474 0.03749 0.3821 1.0 0.0 -0.0 255 0 0
-0.01623 0.02599 0.38844 1.0 -1.0 -0.0 255 0 0
-0.0168 0.04083 0.39591 0.0 1.0 -0.0 255 0 0
-0.02586 0.04636 0.39054 1.0 0.0 0.0 255 0 0
-0.01051 0.03427 0.38269 0.0 -0.0 1.0 255 0 0
-0.02498 0.04583 0.38867 1.0 0.0 0.0 255 0 0
-0.01212 0.04095 0.39112 0.0 1.0 0.0 255 0 0
-0.00949 0.03471 0.38259 0.0 -0.0 1.0 255 0 0
-0.00834 0.03403 0.3826 1.0 -1.0 -0.0 255 0 0
-0.01043 0.03241 0.38853 1.0 -1.0 -0.0 255 0 0
-0.01871 0.02898 0.38266 0.0 -0.0 -1.0 255 0 0
-0.01167 0.02948 0.38877 1.0 -1.0 -0.0 255 0 0
-0.01873 0.04223 0.39614 0.0 1.0 -0.0 255 0 0
-0.01658 0.03485 0.38268 0.0 0.0 -1.0 255 0 0
-0.01656 0.04199 0.39056 0.0 1.0 0.0 255 0 0
-0.01701 0.03629 0.38261 0.0 0.0 -1.0 255 0 0
-0.01727 0.042 0.39102 0.0 1.0 0.0 255 0 0
-0.01852 0.03096 0.38273 0.0 -0.0 -1.0 255 0 0
-0.01849 0.03175 0.38261 0.0 -0.0 -1.0 255 0 0
-0.01377 0.03677 0.38267 0.0 0.0 -1.0 255 0 0
-0.01762 0.02931 0.38265 0.0 -0.0 -1.0 255 0 0
-0.01285 0.03309 0.38258 0.0 0.0 -1.0 255 0 0
-0.02452 0.04653 0.38857 1.0 1.0 0.0 255 0 0
-0.01337 0.0409 0.39505 0.0 1.0 -0.0 255 0 0
-0.02535 0.04652 0.3886 1.0 0.0 0.0 255 0 0
-0.00997 0.033 0.38865 1.0 -1.0 -0.0 255 0 0
-0.01574 0.0422 0.38851 0.0 1.0 0.0 255 0 0
-0.01243 0.04272 0.38283 0.0 1.0 1.0 255 0 0
-0.01355 0.03047 0.38255 0.0 -0.0 -1.0 255 0 0
-0.01255 0.02866 0.38845 1.0 -1.0 -0.0 255 0 0
-0.00761 0.03619 0.38258 0.0 -0.0 1.0 255 0 0
-0.011 0.0303 0.38877 1.0 -1.0 -0.0 255 0 0
-0.01303 0.03001 0.38262 0.0 -1.0 -1.0 255 0 0
-0.00968 0.0321 0.38867 1.0 -1.0 -0.0 255 0 0
-0.0093 0.03305 0.39089 1.0 -0.0 0.0 255 0 0
-0.01098 0.03142 0.38257 1.0 -1.0 -0.0 255 0 0
-0.0175 0.03293 0.38265 0.0 -0.0 -1.0 255 0 0
-0.00809 0.03977 0.38905 1.0 1.0 0.0 255 0 0
-0.00833 0.03596 0.38849 1.0 -0.0 0.0 255 0 0
-0.00914 0.03436 0.38881 1.0 -0.0 -0.0 255 0 0
-0.01221 0.03424 0.38267 0.0 0.0 -1.0 255 0 0
-0.00967 0.03529 0.38284 0.0 -0.0 1.0 255 0 0
-0.01412 0.0282 0.38839 1.0 -1.0 -0.0 255 0 0
-0.01157 0.03361 0.38268 0.0 -0.0 1.0 255 0 0
-0.00847 0.03601 0.38278 0.0 -0.0 1.0 255 0 0
-0.01989 0.02998 0.38274 0.0 -0.0 -1.0 255 0 0
-0.00185 0.03353 0.38294 1.0 -0.0 0.0 255 0 0
-0.02275 0.04309 0.38858 0.0 1.0 0.0 255 0 0
-0.02412 0.04587 0.38879 1.0 1.0 0.0 255 0 0
-0.01889 0.04139 0.39594 0.0 1.0 -0.0 255 0 0
-0.01428 0.02991 0.3827 0.0 -0.0 -1.0 255 0 0
-0.01359 0.02936 0.38278 0.0 -0.0 -1.0 255 0 0
-0.01758 0.04227 0.38837 0.0 1.0 0.0 255 0 0
-0.01301 0.03627 0.3827 0.0 0.0 -1.0 255 0 0
-0.02475 0.04551 0.39591 1.0 1.0 -0.0 255 0 0
-0.01516 0.03022 0.38268 0.0 -0.0 -1.0 255 0 0
-0.01151 0.0309 0.38263 1.0 -1.0 -1.0 255 0 0
-0.01511 0.03837 0.38274 0.0 0.0 -1.0 255 0 0
-0.02428 0.04472 0.39583 1.0 1.0 -0.0 255 0 0
-0.01444 0.03749 0.38271 0.0 0.0 -1.0 255 0 0
-0.00898 0.0332 0.38846 1.0 -1.0 -0.0 255 0 0
-0.02353 0.04376 0.39577 1.0 1.0 -0.0 255 0 0
-0.01512 0.02565 0.39088 1.0 -1.0 -0.0 255 0 0
-0.01363 0.04309 0.38273 0.0 1.0 1.0 255 0 0
-0.01469 0.02747 0.38863 1.0 -1.0 -0.0 255 0 0
-0.02261 0.0441 0.39578 1.0 1.0 -0.0 255 0 0
-0.00933 0.04069 0.38275 0.0 1.0 0.0 255 0 0
-0.01546 0.04327 0.38259 0.0 1.0 1.0 255 0 0
-0.0173 0.04476 0.38272 0.0 0.0 1.0 255 0 0
-0.01671 0.04433 0.38259 0.0 1.0 1.0 255 0 0
-0.01185 0.03083 0.38841 1.0 -1.0 -0.0 255 0 0
-0.01589 0.03862 0.38272 0.0 0.0 -1.0 255 0 0
-0.01702 0.03776 0.38257 0.0 0.0 -1.0 255 0 0
-0.0071 0.03677 0.38271 0.0 -0.0 1.0 255 0 0
-0.00513 0.03927 0.38283 1.0 0.0 1.0 255 0 0
-0.00637 0.03685 0.3826 0.0 -1.0 1.0 255 0 0
-0.00453 0.03948 0.3822 1.0 -0.0 1.0 255 0 0
-0.00508 0.03854 0.38277 1.0 0.0 0.0 255 0 0
-0.02343 0.04366 0.3885 1.0 1.0 0.0 255 0 0
-0.01906 0.04152 0.39094 0.0 1.0 0.0 255 0 0
-0.02166 0.02843 0.3827 0.0 -0.0 -1.0 255 0 0
-0.02061 0.04328 0.39039 0.0 1.0 -0.0 255 0 0
-0.01654 0.03724 0.38274 0.0 0.0 -1.0 255 0 0
-0.01334 0.02789 0.38833 1.0 -1.0 -0.0 255 0 0
-0.01379 0.03745 0.38286 0.0 0.0 -1.0 255 0 0
-0.00793 0.0351 0.3883 1.0 -0.0 0.0 255 0 0
-0.02627 0.04765 0.39081 1.0 0.0 0.0 255 0 0
-0.02146 0.04245 0.39595 0.0 1.0 -0.0 255 0 0
-0.01752 0.04121 0.39047 0.0 1.0 0.0 255 0 0
-0.0114 0.03453 0.38278 0.0 -0.0 1.0 255 0 0
-0.01023 0.03939 0.39061 0.0 1.0 0.0 255 0 0
-0.01559 0.04127 0.39546 0.0 1.0 -0.0 255 0 0
-0.01434 0.04322 0.38274 0.0 1.0 1.0 255 0 0
-0.00961 0.03918 0.39077 0.0 1.0 0.0 255 0 0
-0.00863 0.03533 0.38814 1.0 -0.0 0.0 255 0 0
-0.01768 0.04181 0.39575 0.0 1.0 -0.0 255 0 0
-0.01121 0.03187 0.38781 1.0 -1.0 -0.0 255 0 0
-0.02457 0.04528 0.38844 1.0 0.0 0.0 255 0 0
-0.01228 0.03034 0.38836 1.0 -1.0 -0.0 255 0 0
-0.01276 0.02982 0.38831 1.0 -1.0 -0.0 255 0 0
-0.0132 0.02929 0.3883 1.0 -1.0 -0.0 255 0 0
-0.01763 0.03228 0.38272 0.0 -0.0 -1.0 255 0 0
-0.02515 0.04457 0.39135 1.0 1.0 -0.0 255 0 0
-0.00709 0.03998 0.38272 0.0 0.0 1.0 255 0 0
-0.0189 0.02825 0.38298 0.0 -0.0 -1.0 255 0 0
-0.01671 0.03233 0.38286 0.0 -0.0 -1.0 255 0 0
-0.00806 0.04138 0.38826 0.0 1.0 1.0 255 0 0
-0.01656 0.04164 0.39616 0.0 1.0 -0.0 255 0 0
-0.0146 0.04117 0.3956 0.0 1.0 -0.0 255 0 0
-0.01635 0.03331 0.38281 0.0 -0.0 -1.0 255 0 0
-0.00666 0.04004 0.38842 1.0 0.0 1.0 255 0 0
-0.019 0.04248 0.38842 0.0 1.0 -0.0 255 0 0
-0.02068 0.02913 0.38288 0.0 -0.0 -1.0 255 0 0
-0.00631 0.03847 0.38819 1.0 -0.0 0.0 255 0 0
-0.01284 0.03737 0.38301 0.0 0.0 -1.0 255 0 0
-0.0166 0.04219 0.38829 0.0 1.0 -0.0 255 0 0
-0.01592 0.02664 0.38795 1.0 -1.0 -0.0 255 0 0
-0.02284 0.04314 0.3909 0.0 1.0 -0.0 255 0 0
-0.01608 0.02531 0.38845 1.0 -1.0 -0.0 255 0 0
-0.02146 0.04235 0.38834 1.0 1.0 0.0 255 0 0
-0.01679 0.0256 0.38815 1.0 -1.0 -0.0 255 0 0
-0.01435 0.03831 0.38291 0.0 0.0 -1.0 255 0 0
-0.02272 0.04303 0.39565 1.0 1.0 -0.0 255 0 0
-0.00873 0.03352 0.38276 1.0 -1.0 0.0 255 0 0
-0.01228 0.03617 0.38281 0.0 0.0 -1.0 255 0 0
-0.0169 0.02916 0.38285 0.0 -0.0 -1.0 255 0 0
-0.01093 0.03592 0.38294 0.0 -0.0 1.0 255 0 0
-0.0103 0.03496 0.38283 0.0 -0.0 1.0 255 0 0
-0.01409 0.04259 0.38305 0.0 1.0 1.0 255 0 0
-0.02004 0.04313 0.39092 0.0 1.0 0.0 255 0 0
-0.009 0.04027 0.39096 0.0 1.0 0.0 255 0 0
-0.01463 0.02934 0.38282 0.0 0.0 1.0 255 0 0
-0.01812 0.04214 0.39131 0.0 1.0 0.0 255 0 0
-0.01314 0.04217 0.38827 0.0 -1.0 -0.0 255 0 0
-0.01912 0.04137 0.38837 0.0 1.0 -0.0 255 0 0
-0.0016 0.03597 0.38321 1.0 -0.0 0.0 255 0 0
-0.01286 0.04083 0.38842 0.0 1.0 0.0 255 0 0
-0.01472 0.04097 0.38838 0.0 -1.0 -0.0 255 0 0
-0.01573 0.04095 0.38831 0.0 -1.0 0.0 255 0 0
-0.00827 0.04006 0.38826 0.0 1.0 1.0 255 0 0
-0.00774 0.04018 0.38771 1.0 1.0 0.0 255 0 0
-0.0165 0.04104 0.38859 0.0 1.0 -0.0 255 0 0
-0.01756 0.04113 0.38845 0.0 1.0 -0.0 255 0 0
-0.00704 0.03742 0.38293 0.0 -0.0 1.0 255 0 0
-0.01785 0.03119 0.38284 0.0 -0.0 -1.0 255 0 0
-0.00586 0.03796 0.38281 1.0 -0.0 1.0 255 0 0
-0.00578 0.03876 0.38285 1.0 0.0 1.0 255 0 0
-0.00779 0.03966 0.38295 0.0 0.0 1.0 255 0 0
-0.01962 0.04262 0.38813 0.0 1.0 0.0 255 0 0
-0.02516 0.04631 0.39117 1.0 0.0 0.0 255 0 0
-0.01583 0.03383 0.38292 0.0 -0.0 -1.0 255 0 0
-0.01647 0.0383 0.38265 0.0 0.0 -1.0 255 0 0
-0.01261 0.02892 0.39092 1.0 -1.0 0.0 255 0 0
-0.00709 0.03682 0.38785 1.0 -0.0 0.0 255 0 0
-0.01533 0.02711 0.38809 1.0 -1.0 -0.0 255 0 0
-0.01672 0.03406 0.38268 0.0 -0.0 -1.0 255 0 0
-0.00621 0.03622 0.38295 0.0 -1.0 1.0 255 0 0
-0.00451 0.03991 0.38282 1.0 -0.0 1.0 255 0 0
-0.00574 0.03713 0.38263 0.0 -0.0 1.0 255 0 0
-0.00471 0.03789 0.38268 1.0 -0.0 -0.0 255 0 0
-0.02348 0.04546 0.38817 1.0 1.0 0.0 255 0 0
-0.00968 0.04169 0.38849 0.0 1.0 1.0 255 0 0
-0.01187 0.02995 0.39103 1.0 -1.0 0.0 255 0 0
-0.00437 0.03653 0.38348 1.0 0.0 -0.0 255 0 0
-0.00358 0.03289 0.38193 0.0 1.0 0.0 255 0 0
-0.00324 0.03276 0.38135 0.0 1.0 0.0 255 0 0
-0.00478 0.03513 0.38176 1.0 0.0 -0.0 255 0 0
-0.00429 0.034 0.38305 1.0 0.0 -0.0 255 0 0
-0.01794 0.02357 0.38839 1.0 -1.0 -0.0 255 0 0
-0.01483 0.04042 0.39535 0.0 1.0 -0.0 255 0 0
-0.00128 0.03674 0.38296 1.0 -0.0 -0.0 255 0 0
-0.01582 0.04063 0.39569 0.0 1.0 -0.0 255 0 0
-0.0195 0.02789 0.38306 0.0 -0.0 -1.0 255 0 0
-0.01071 0.03087 0.38811 1.0 -1.0 -0.0 255 0 0
-0.0114 0.03001 0.38822 1.0 -1.0 -0.0 255 0 0
-0.02096 0.02841 0.38313 0.0 -0.0 -1.0 255 0 0
-0.0122 0.03687 0.38294 0.0 0.0 -1.0 255 0 0
-0.01585 0.03583 0.38291 0.0 0.0 -1.0 255 0 0
-0.02396 0.04524 0.39555 1.0 1.0 -0.0 255 0 0
-0.00818 0.03615 0.38783 1.0 -0.0 0.0 255 0 0
-0.01514 0.03584 0.3831 0.0 0.0 -1.0 255 0 0
-0.01163 0.03652 0.38298 0.0 0.0 -1.0 255 0 0
-0.02204 0.04389 0.38828 1.0 1.0 0.0 255 0 0
-0.01694 0.04158 0.39557 0.0 1.0 -0.0 255 0 0
-0.01791 0.0287 0.38289 0.0 -0.0 -1.0 255 0 0
-0.02087 0.04203 0.38816 0.0 1.0 0.0 255 0 0
-0.0213 0.04362 0.39076 0.0 1.0 -0.0 255 0 0
-0.01717 0.0244 0.38832 1.0 -1.0 -0.0 255 0 0
-0.0249 0.04628 0.388 1.0 0.0 0.0 255 0 0
-0.00172 0.03524 0.38296 1.0 -0.0 0.0 255 0 0
-0.01622 0.0364 0.38285 0.0 0.0 -1.0 255 0 0
-0.0157 0.02514 0.39107 1.0 -1.0 -0.0 255 0 0
-0.01876 0.04204 0.39537 0.0 1.0 -0.0 255 0 0
-0.00746 0.03607 0.38812 1.0 -0.0 0.0 255 0 0
-0.02467 0.04545 0.39156 1.0 1.0 0.0 255 0 0
-0.00954 0.04047 0.38713 0.0 1.0 0.0 255 0 0
-0.01836 0.02998 0.38306 0.0 -0.0 -1.0 255 0 0
-0.00751 0.03927 0.38797 1.0 0.0 0.0 255 0 0
-0.0144 0.03915 0.38315 0.0 0.0 -1.0 255 0 0
-0.01719 0.0306 0.38313 0.0 -0.0 -1.0 255 0 0
-0.01859 0.02342 0.38818 1.0 -1.0 -0.0 255 0 0
-0.01553 0.02897 0.38298 0.0 -0.0 -1.0 255 0 0
-0.01548 0.03441 0.38299 0.0 0.0 -1.0 255 0 0
-0.00985 0.04201 0.38792 0.0 1.0 1.0 255 0 0
-0.00605 0.03961 0.38795 1.0 -0.0 1.0 255 0 0
-0.01112 0.04218 0.38783 0.0 -1.0 -0.0 255 0 0
-0.01228 0.03001 0.38297 0.0 -1.0 -0.0 255 0 0
-0.01732 0.03165 0.38289 0.0 -0.0 -1.0 255 0 0
-0.01071 0.03241 0.38792 1.0 -1.0 -0.0 255 0 0
-0.01972 0.04247 0.39575 0.0 1.0 -0.0 255 0 0
-0.02368 0.04606 0.38766 1.0 1.0 0.0 255 0 0
-0.00987 0.03614 0.38305 0.0 -0.0 1.0 255 0 0
-0.00862 0.0367 0.38315 0.0 -1.0 1.0 255 0 0
-0.01192 0.02955 0.388 1.0 -1.0 -0.0 255 0 0
-0.01549 0.03648 0.38306 0.0 0.0 -1.0 255 0 0
-0.01424 0.0272 0.38797 1.0 -1.0 -0.0 255 0 0
-0.0214 0.04216 0.39533 0.0 1.0 -0.0 255 0 0
-0.01016 0.03158 0.38805 1.0 -1.0 -0.0 255 0 0
-0.01119 0.03103 0.39038 1.0 -1.0 -0.0 255 0 0
-0.01567 0.03712 0.383 0.0 0.0 -1.0 255 0 0
-0.01821 0.0412 0.39095 0.0 1.0 0.0 255 0 0
-0.00773 0.03685 0.38292 0.0 -0.0 1.0 255 0 0
-0.01627 0.04044 0.39126 0.0 1.0 0.0 255 0 0
-0.02573 0.04785 0.39023 1.0 0.0 0.0 255 0 0
-0.02058 0.04279 0.39562 0.0 1.0 -0.0 255 0 0
-0.01311 0.0422 0.38301 0.0 1.0 1.0 255 0 0
-0.02075 0.04189 0.39541 0.0 1.0 -0.0 255 0 0
-0.01871 0.0455 0.38313 1.0 1.0 1.0 255 0 0
-0.01435 0.02857 0.38308 0.0 -1.0 -1.0 255 0 0
-0.01271 0.04061 0.39527 0.0 1.0 -0.0 255 0 0
-0.01241 0.02918 0.38766 1.0 -1.0 -0.0 255 0 0
-0.01765 0.04529 0.38292 0.0 0.0 1.0 255 0 0
-0.01158 0.04241 0.38291 0.0 1.0 0.0 255 0 0
-0.02198 0.04284 0.3879 1.0 1.0 0.0 255 0 0
-0.02411 0.04409 0.39521 1.0 1.0 -0.0 255 0 0
-0.02411 0.04523 0.38772 1.0 0.0 1.0 255 0 0
-0.02399 0.04461 0.38815 1.0 1.0 0.0 255 0 0
-0.00703 0.03539 0.38319 1.0 -1.0 0.0 255 0 0
-0.01513 0.02641 0.38792 1.0 -1.0 -0.0 255 0 0
-0.00184 0.03453 0.38314 1.0 -0.0 0.0 255 0 0
-0.01881 0.04114 0.39525 0.0 1.0 -0.0 255 0 0
-0.02564 0.04538 0.39128 1.0 0.0 0.0 255 0 0
-0.01491 0.03504 0.38313 0.0 0.0 -1.0 255 0 0
-0.01501 0.03767 0.38326 0.0 0.0 -1.0 255 0 0
-0.01177 0.03738 0.38313 0.0 0.0 -1.0 255 0 0
-0.01898 0.02962 0.38308 0.0 -0.0 -1.0 255 0 0
-0.01015 0.03699 0.38323 0.0 0.0 -1.0 255 0 0
-0.00724 0.03831 0.38778 1.0 -0.0 0.0 255 0 0
-0.00759 0.03753 0.38804 1.0 -0.0 0.0 255 0 0
-0.01349 0.03823 0.38312 0.0 0.0 -1.0 255 0 0
-0.01504 0.04219 0.38813 0.0 -1.0 0.0 255 0 0
-0.01576 0.02833 0.38319 0.0 -0.0 -1.0 255 0 0
-0.01219 0.03081 0.38776 1.0 -1.0 -0.0 255 0 0
-0.00986 0.03344 0.38796 1.0 -1.0 -0.0 255 0 0
-0.01692 0.04063 0.39519 0.0 1.0 -0.0 255 0 0
-0.00707 0.04139 0.38778 0.0 0.0 1.0 255 0 0
-0.00897 0.03478 0.39107 1.0 -0.0 0.0 255 0 0
-0.01148 0.04148 0.38303 0.0 1.0 1.0 255 0 0
-0.01978 0.04155 0.38796 0.0 1.0 0.0 255 0 0
-0.0232 0.04398 0.38775 1.0 1.0 0.0 255 0 0
-0.01592 0.03219 0.38307 0.0 -0.0 -1.0 255 0 0
-0.01672 0.03122 0.38311 0.0 -0.0 -1.0 255 0 0
-0.00908 0.04185 0.38801 0.0 1.0 1.0 255 0 0
-0.01925 0.04264 0.39122 0.0 1.0 0.0 255 0 0
-0.00936 0.03271 0.388 1.0 -1.0 -0.0 255 0 0
-0.01505 0.04153 0.39093 0.0 1.0 0.0 255 0 0
-0.02567 0.0458 0.39516 1.0 1.0 -0.0 255 0 0
-0.01887 0.02765 0.38333 0.0 -0.0 -1.0 255 0 0
-0.02257 0.04475 0.38769 1.0 1.0 1.0 255 0 0
-0.009 0.03371 0.39137 1.0 -0.0 0.0 255 0 0
-0.02203 0.04347 0.3951 1.0 1.0 -0.0 255 0 0
-0.01972 0.04175 0.387 0.0 1.0 0.0 255 0 0
-0.01458 0.02812 0.38783 1.0 -1.0 -0.0 255 0 0
-0.01733 0.02514 0.388 1.0 -1.0 -0.0 255 0 0
-0.01417 0.04032 0.39516 0.0 1.0 -0.0 255 0 0
-0.01502 0.03367 0.38315 0.0 -0.0 -1.0 255 0 0
-0.01168 0.03131 0.38787 1.0 -1.0 -0.0 255 0 0
-0.01836 0.02411 0.38803 1.0 -1.0 -0.0 255 0 0
-0.01498 0.04109 0.39497 0.0 1.0 -0.0 255 0 0
-0.02302 0.04302 0.39501 1.0 1.0 -0.0 255 0 0
-0.00717 0.03817 0.3834 0.0 -0.0 1.0 255 0 0
-0.01434 0.03567 0.38329 0.0 -0.0 -1.0 255 0 0
-0.01522 0.03229 0.3832 0.0 -0.0 -1.0 255 0 0
-0.01977 0.04143 0.39511 0.0 1.0 -0.0 255 0 0
-0.01481 0.03699 0.3833 0.0 0.0 -1.0 255 0 0
-0.02185 0.02719 0.3835 0.0 0.0 1.0 255 0 0
-0.00941 0.04066 0.38359 0.0 1.0 1.0 255 0 0
-0.0163 0.04139 0.3954 0.0 1.0 -0.0 255 0 0
-0.0089 0.04034 0.38762 0.0 1.0 0.0 255 0 0
-0.01021 0.04075 0.38654 0.0 -1.0 -0.0 255 0 0
-0.00851 0.04102 0.38295 1.0 1.0 -0.0 255 0 0
-0.01695 0.04143 0.39486 0.0 1.0 -0.0 255 0 0
-0.01283 0.04077 0.38758 0.0 -1.0 -0.0 255 0 0
-0.01501 0.02789 0.38344 0.0 -1.0 -1.0 255 0 0
-0.00975 0.04164 0.38357 0.0 1.0 -0.0 255 0 0
-0.01239 0.04219 0.38767 0.0 -1.0 0.0 255 0 0
-0.00589 0.04005 0.38296 0.0 -0.0 1.0 255 0 0
-0.00754 0.04184 0.38757 0.0 1.0 1.0 255 0 0
-0.0165 0.03035 0.38337 0.0 -0.0 -1.0 255 0 0
-0.02014 0.02727 0.38326 0.0 -0.0 -1.0 255 0 0
-0.01093 0.03743 0.38326 0.0 0.0 -1.0 255 0 0
-0.01832 0.04231 0.38798 0.0 1.0 0.0 255 0 0
-0.01438 0.0281 0.38359 0.0 -1.0 -0.0 255 0 0
-0.0199 0.02913 0.38305 0.0 -0.0 -1.0 255 0 0
-0.01554 0.03139 0.38337 0.0 -0.0 -1.0 255 0 0
-0.02455 0.0446 0.39503 1.0 1.0 -0.0 255 0 0
-0.0083 0.03437 0.38774 1.0 -0.0 -0.0 255 0 0
-0.00948 0.03409 0.38774 1.0 -1.0 -0.0 255 0 0
-0.01642 0.02841 0.38318 0.0 -0.0 -1.0 255 0 0
-0.01099 0.03118 0.38325 1.0 -1.0 -0.0 255 0 0
-0.02002 0.04182 0.3913 0.0 1.0 0.0 255 0 0
-0.01071 0.04114 0.38329 0.0 1.0 0.0 255 0 0
-0.01689 0.04162 0.39181 0.0 1.0 0.0 255 0 0
-0.01481 0.04251 0.38334 0.0 1.0 1.0 255 0 0
-0.01642 0.04165 0.39126 0.0 1.0 0.0 255 0 0
-0.02326 0.04447 0.39533 1.0 1.0 -0.0 255 0 0
-0.01656 0.02465 0.39096 1.0 -1.0 -0.0 255 0 0
-0.02323 0.0444 0.39134 0.0 1.0 -0.0 255 0 0
-0.02578 0.04778 0.39128 1.0 0.0 0.0 255 0 0
-0.00783 0.03672 0.38751 1.0 -0.0 0.0 255 0 0
-0.01362 0.04219 0.38783 0.0 -1.0 0.0 255 0 0
-0.00789 0.03982 0.39085 1.0 1.0 1.0 255 0 0
-0.01393 0.02875 0.38789 1.0 -1.0 -0.0 255 0 0
-0.00883 0.03906 0.39054 0.0 1.0 0.0 255 0 0
-0.01312 0.03986 0.39104 0.0 1.0 0.0 255 0 0
-0.01241 0.03965 0.39181 0.0 1.0 0.0 255 0 0
-0.0112 0.03958 0.3913 0.0 1.0 0.0 255 0 0
-0.02206 0.04429 0.38757 1.0 1.0 1.0 255 0 0
-0.01232 0.04227 0.38356 0.0 1.0 0.0 255 0 0
-0.01639 0.02629 0.38767 1.0 -1.0 -0.0 255 0 0
-0.0139 0.03309 0.38337 0.0 -0.0 -1.0 255 0 0
-0.01408 0.03392 0.38331 0.0 -0.0 -1.0 255 0 0
-0.00679 0.03746 0.38771 1.0 -0.0 0.0 255 0 0
-0.01312 0.0277 0.39165 1.0 -1.0 0.0 255 0 0
-0.02235 0.04264 0.39522 1.0 1.0 -0.0 255 0 0
-0.01923 0.02896 0.3833 0.0 -0.0 -1.0 255 0 0
-0.00942 0.03714 0.38329 0.0 -0.0 1.0 255 0 0
-0.02108 0.04184 0.39463 0.0 1.0 -0.0 255 0 0
-0.00715 0.03955 0.38748 1.0 0.0 1.0 255 0 0
-0.00666 0.03912 0.38691 1.0 0.0 0.0 255 0 0
-0.0077 0.03774 0.38335 0.0 -0.0 1.0 255 0 0
-0.01551 0.04078 0.38697 0.0 1.0 0.0 255 0 0
-0.01272 0.04213 0.38708 0.0 -1.0 0.0 255 0 0
-0.01418 0.03672 0.3834 0.0 0.0 -1.0 255 0 0
-0.02076 0.04221 0.38736 1.0 1.0 0.0 255 0 0
-0.01569 0.04374 0.38325 0.0 1.0 1.0 255 0 0
-0.0045 0.04148 0.38306 1.0 -1.0 1.0 255 0 0
-0.01649 0.04413 0.38331 0.0 1.0 1.0 255 0 0
-0.0133 0.02966 0.38757 1.0 -1.0 -0.0 255 0 0
-0.01523 0.02795 0.38705 1.0 -1.0 -0.0 255 0 0
-0.021 0.04242 0.39127 0.0 1.0 0.0 255 0 0
-0.00994 0.04044 0.39146 0.0 1.0 0.0 255 0 0
-0.02191 0.02805 0.38328 0.0 -0.0 -1.0 255 0 0
-0.0166 0.02529 0.38755 1.0 -1.0 -0.0 255 0 0
-0.00579 0.03761 0.38435 0.0 -1.0 0.0 255 0 0
-0.00493 0.0377 0.38343 1.0 0.0 -0.0 255 0 0
-0.00529 0.04059 0.3833 0.0 -0.0 1.0 255 0 0
-0.01968 0.0423 0.39485 0.0 1.0 -0.0 255 0 0
-0.00219 0.03239 0.38255 0.0 -1.0 -0.0 255 0 0
-0.01914 0.04609 0.38333 0.0 1.0 1.0 255 0 0
-0.01271 0.0281 0.39114 1.0 -1.0 0.0 255 0 0
-0.00913 0.03315 0.38753 1.0 -1.0 -0.0 255 0 0
-0.01603 0.04034 0.39469 0.0 1.0 -0.0 255 0 0
-0.02152 0.04307 0.39484 1.0 1.0 -0.0 255 0 0
-0.01408 0.02773 0.38736 1.0 -1.0 -0.0 255 0 0
-0.00795 0.03494 0.38728 1.0 -1.0 -0.0 255 0 0
-0.02234 0.04338 0.38743 1.0 1.0 0.0 255 0 0
-0.01712 0.02787 0.38342 0.0 -0.0 -1.0 255 0 0
-0.0089 0.03496 0.38759 1.0 -1.0 -0.0 255 0 0
-0.01053 0.03107 0.3913 1.0 -1.0 0.0 255 0 0
-0.01625 0.02771 0.38349 0.0 -1.0 -1.0 255 0 0
-0.00855 0.03769 0.38343 0.0 -0.0 1.0 255 0 0
-0.01295 0.03861 0.38335 0.0 0.0 -1.0 255 0 0
-0.01324 0.03594 0.38347 0.0 0.0 -1.0 255 0 0
-0.01727 0.04388 0.38336 0.0 1.0 1.0 255 0 0
-0.02467 0.04698 0.38749 1.0 0.0 0.0 255 0 0
-0.00825 0.04195 0.3876 0.0 1.0 1.0 255 0 0
-0.01652 0.04308 0.38365 0.0 1.0 1.0 255 0 0
-0.01566 0.03061 0.38348 0.0 -0.0 -1.0 255 0 0
-0.01411 0.03468 0.38331 0.0 -0.0 -1.0 255 0 0
-0.01352 0.0344 0.38341 0.0 -0.0 -1.0 255 0 0
-0.01749 0.04218 0.38769 0.0 1.0 -0.0 255 0 0
-0.02468 0.04603 0.39549 1.0 1.0 -0.0 255 0 0
-0.01776 0.02521 0.38734 1.0 -1.0 -0.0 255 0 0
-0.0147 0.03152 0.38347 0.0 -0.0 -1.0 255 0 0
-0.01782 0.04435 0.3834 0.0 1.0 1.0 255 0 0
-0.01416 0.03215 0.38346 0.0 -0.0 -1.0 255 0 0
-0.00951 0.03272 0.38329 1.0 -1.0 0.0 255 0 0
-0.0242 0.04387 0.39139 1.0 1.0 -0.0 255 0 0
-0.01793 0.04071 0.3945 0.0 1.0 -0.0 255 0 0
-0.01439 0.03783 0.3835 0.0 0.0 -1.0 255 0 0
-0.00995 0.03292 0.39126 1.0 -1.0 0.0 255 0 0
-0.01513 0.03925 0.38311 0.0 0.0 -1.0 255 0 0
-0.01276 0.03173 0.38353 1.0 0.0 -1.0 255 0 0
-0.02018 0.02831 0.38332 0.0 -0.0 -1.0 255 0 0
-0.0107 0.04041 0.3878 0.0 1.0 0.0 255 0 0
-0.01818 0.04177 0.39488 0.0 1.0 -0.0 255 0 0
-0.02401 0.04499 0.39484 1.0 1.0 -0.0 255 0 0
-0.01776 0.04107 0.38763 0.0 1.0 -0.0 255 0 0
-0.00684 0.04004 0.38699 1.0 1.0 0.0 255 0 0
-0.01226 0.0301 0.38368 1.0 -1.0 -0.0 255 0 0
-0.02284 0.04399 0.39487 1.0 1.0 -0.0 255 0 0
-0.01098 0.04223 0.3871 0.0 -1.0 -0.0 255 0 0
-0.01168 0.04222 0.38731 0.0 -1.0 0.0 255 0 0
-0.01173 0.03039 0.38329 1.0 -1.0 -0.0 255 0 0
-0.01121 0.03824 0.38351 0.0 0.0 -1.0 255 0 0
-0.01317 0.03373 0.3835 0.0 -0.0 -1.0 255 0 0
-0.02442 0.04594 0.38757 1.0 1.0 1.0 255 0 0
-0.01476 0.03053 0.3836 0.0 -0.0 -1.0 255 0 0
-0.01319 0.03507 0.38349 0.0 0.0 -1.0 255 0 0
-0.02193 0.04223 0.39467 1.0 1.0 -0.0 255 0 0
-0.02121 0.04368 0.38763 1.0 1.0 0.0 255 0 0
-0.02352 0.04464 0.38751 1.0 1.0 0.0 255 0 0
-0.02353 0.04343 0.39491 1.0 1.0 -0.0 255 0 0
-0.00631 0.04101 0.38762 0.0 0.0 1.0 255 0 0
-0.01599 0.04121 0.39475 0.0 1.0 -0.0 255 0 0
-0.0147 0.02707 0.38742 1.0 -1.0 -0.0 255 0 0
-0.00578 0.04059 0.38742 0.0 0.0 1.0 255 0 0
-0.01315 0.0402 0.39471 0.0 1.0 -0.0 255 0 0
-0.0044 0.04192 0.38363 0.0 -1.0 1.0 255 0 0
-0.00604 0.03657 0.38351 0.0 -1.0 1.0 255 0 0
-0.00876 0.04045 0.38405 0.0 0.0 1.0 255 0 0
-0.00661 0.03914 0.38307 0.0 0.0 1.0 255 0 0
-0.00962 0.03253 0.3873 1.0 -1.0 -0.0 255 0 0
-0.0144 0.04097 0.3947 0.0 1.0 -0.0 255 0 0
-0.01987 0.04579 0.38361 0.0 0.0 1.0 255 0 0
-0.01364 0.03095 0.38349 0.0 -0.0 -1.0 255 0 0
-0.00327 0.03239 0.38345 0.0 1.0 -0.0 255 0 0
-0.00392 0.03329 0.38139 1.0 1.0 0.0 255 0 0
-0.00251 0.03213 0.38332 0.0 1.0 0.0 255 0 0
-0.00376 0.03301 0.38263 1.0 1.0 0.0 255 0 0
-0.00461 0.03556 0.38277 1.0 0.0 -0.0 255 0 0
-0.00441 0.03523 0.38363 1.0 0.0 -0.0 255 0 0
-0.00493 0.03597 0.38167 1.0 0.0 -0.0 255 0 0
-0.01189 0.02996 0.38723 1.0 -1.0 -0.0 255 0 0
-0.01452 0.04009 0.39452 0.0 1.0 -0.0 255 0 0
-0.01563 0.02629 0.38733 1.0 -1.0 -0.0 255 0 0
-0.01237 0.0415 0.38342 0.0 1.0 1.0 255 0 0
-0.01215 0.03205 0.38359 1.0 -0.0 -1.0 255 0 0
-0.01425 0.03854 0.38358 0.0 0.0 -1.0 255 0 0
-0.02602 0.04635 0.3914 1.0 0.0 0.0 255 0 0
-0.00697 0.03896 0.38363 1.0 0.0 1.0 255 0 0
-0.01202 0.03871 0.38355 0.0 0.0 -1.0 255 0 0
-0.0178 0.02919 0.38352 0.0 -0.0 -1.0 255 0 0
-0.01322 0.03304 0.38357 0.0 0.0 -1.0 255 0 0
-0.01703 0.0295 0.38355 0.0 -0.0 -1.0 255 0 0
-0.01635 0.02975 0.38361 0.0 -0.0 -1.0 255 0 0
-0.01019 0.03829 0.38365 0.0 0.0 -1.0 255 0 0
-0.02504 0.04506 0.39482 1.0 1.0 -0.0 255 0 0
-0.01018 0.03231 0.38372 1.0 -1.0 0.0 255 0 0
-0.00926 0.03335 0.38376 1.0 -1.0 0.0 255 0 0
-0.01323 0.03945 0.38357 0.0 0.0 -1.0 255 0 0
-0.01009 0.03174 0.39131 1.0 -0.0 0.0 255 0 0
-0.00793 0.04226 0.38703 0.0 1.0 0.0 255 0 0
-0.013 0.02933 0.38358 1.0 -1.0 -0.0 255 0 0
-0.00729 0.03617 0.38736 1.0 -0.0 0.0 255 0 0
-0.00674 0.03603 0.38369 1.0 -1.0 0.0 255 0 0
-0.01437 0.04299 0.38353 0.0 1.0 1.0 255 0 0
-0.01046 0.03311 0.38725 1.0 -1.0 -0.0 255 0 0
-0.00988 0.04226 0.38724 0.0 -1.0 0.0 255 0 0
-0.00119 0.03714 0.38357 1.0 -0.0 0.0 255 0 0
-0.02187 0.04389 0.39106 0.0 1.0 -0.0 255 0 0
-0.02022 0.02654 0.38372 0.0 -0.0 -1.0 255 0 0
-0.01233 0.0327 0.38364 0.0 -0.0 -1.0 255 0 0
-0.01355 0.03893 0.38385 0.0 0.0 -1.0 255 0 0
-0.02591 0.04585 0.39448 1.0 1.0 -0.0 255 0 0
-0.01194 0.03341 0.38371 0.0 -0.0 -1.0 255 0 0
-0.01056 0.03137 0.38737 1.0 -1.0 -0.0 255 0 0
-0.01754 0.02694 0.38393 0.0 -0.0 -1.0 255 0 0
-0.01619 0.0271 0.38383 0.0 -1.0 -1.0 255 0 0
-0.01469 0.04073 0.38703 0.0 -1.0 0.0 255 0 0
-0.01279 0.03698 0.3837 0.0 0.0 -1.0 255 0 0
-0.01684 0.04091 0.38741 0.0 1.0 -0.0 255 0 0
-0.01475 0.04211 0.38746 0.0 -1.0 0.0 255 0 0
-0.02289 0.0456 0.38707 1.0 1.0 1.0 255 0 0
-0.01903 0.04145 0.38721 0.0 1.0 0.0 255 0 0
-0.01836 0.04508 0.38363 0.0 0.0 1.0 255 0 0
-0.01304 0.04161 0.38353 0.0 1.0 1.0 255 0 0
-0.01534 0.04136 0.39148 0.0 1.0 0.0 255 0 0
-0.01243 0.03481 0.38367 0.0 -0.0 -1.0 255 0 0
-0.01518 0.02975 0.38367 0.0 -0.0 -1.0 255 0 0
-0.01444 0.02988 0.38367 0.0 -0.0 -1.0 255 0 0
-0.01731 0.04333 0.38372 0.0 1.0 1.0 255 0 0
-0.01337 0.02991 0.38693 1.0 -1.0 -0.0 255 0 0
-0.02432 0.04417 0.3945 1.0 1.0 0.0 255 0 0
-0.01525 0.04018 0.39441 0.0 1.0 -0.0 255 0 0
-0.00674 0.04204 0.38712 0.0 1.0 1.0 255 0 0
-0.01098 0.03348 0.38369 1.0 -0.0 -1.0 255 0 0
-0.00836 0.04009 0.38365 1.0 0.0 1.0 255 0 0
-0.01583 0.02711 0.38733 1.0 -1.0 -0.0 255 0 0
-0.01066 0.0419 0.38327 0.0 1.0 0.0 255 0 0
-0.01832 0.02874 0.38365 0.0 -0.0 -1.0 255 0 0
-0.02105 0.04634 0.38398 0.0 1.0 1.0 255 0 0
-0.01373 0.03995 0.3837 0.0 0.0 -1.0 255 0 0
-0.00507 0.04142 0.38385 0.0 -1.0 1.0 255 0 0
-0.01217 0.03672 0.38378 0.0 0.0 -1.0 255 0 0
-0.01108 0.03083 0.38723 1.0 -1.0 -0.0 255 0 0
-0.02076 0.02757 0.38355 0.0 -0.0 -1.0 255 0 0
-0.01337 0.0426 0.38357 0.0 1.0 0.0 255 0 0
-0.01814 0.02731 0.38367 0.0 -1.0 -1.0 255 0 0
-0.01165 0.03402 0.38374 0.0 0.0 -1.0 255 0 0
-0.00158 0.03641 0.3837 1.0 -0.0 0.0 255 0 0
-0.02488 0.04594 0.39373 1.0 1.0 0.0 255 0 0
-0.00902 0.03837 0.3837 0.0 -0.0 1.0 255 0 0
-0.01243 0.03577 0.38367 0.0 0.0 -1.0 255 0 0
-0.02029 0.0425 0.39464 0.0 1.0 -0.0 255 0 0
-0.01171 0.03524 0.38382 0.0 0.0 -1.0 255 0 0
-0.01455 0.04123 0.39146 0.0 1.0 0.0 255 0 0
-0.01638 0.04246 0.38401 0.0 1.0 1.0 255 0 0
-0.01295 0.03048 0.38369 1.0 -1.0 -0.0 255 0 0
-0.00185 0.0328 0.38346 1.0 -1.0 -0.0 255 0 0
-0.01172 0.03172 0.38715 1.0 -1.0 -0.0 255 0 0
-0.01406 0.02909 0.38713 1.0 -1.0 -0.0 255 0 0
-0.01851 0.04432 0.3837 0.0 1.0 1.0 255 0 0
-0.01512 0.04302 0.3838 0.0 1.0 1.0 255 0 0
-0.00522 0.04027 0.38712 0.0 -0.0 1.0 255 0 0
-0.00529 0.03952 0.38712 1.0 -0.0 1.0 255 0 0
-0.01143 0.04076 0.39135 0.0 1.0 0.0 255 0 0
-0.01054 0.04046 0.39236 0.0 1.0 0.0 255 0 0
-0.01139 0.03065 0.39124 1.0 -1.0 0.0 255 0 0
-0.01795 0.02442 0.38724 1.0 -1.0 -0.0 255 0 0
-0.01241 0.04027 0.3947 0.0 -1.0 0.0 255 0 0
-0.00613 0.03821 0.38728 1.0 -0.0 0.0 255 0 0
-0.01321 0.03987 0.38417 0.0 0.0 -1.0 255 0 0
-0.0179 0.04162 0.39419 0.0 1.0 -0.0 255 0 0
-0.00812 0.03881 0.38386 0.0 0.0 1.0 255 0 0
-0.01689 0.02712 0.3838 0.0 -1.0 -1.0 255 0 0
-0.00866 0.03401 0.38384 1.0 -1.0 0.0 255 0 0
-0.0153 0.04115 0.39219 0.0 1.0 0.0 255 0 0
-0.01103 0.04072 0.38687 0.0 1.0 -0.0 255 0 0
-0.01143 0.04067 0.38761 0.0 1.0 0.0 255 0 0
-0.01258 0.04072 0.38651 0.0 -1.0 0.0 255 0 0
-0.01648 0.02909 0.38379 0.0 -0.0 -1.0 255 0 0
-0.00733 0.03757 0.38726 1.0 -0.0 0.0 255 0 0
-0.01686 0.04053 0.39158 0.0 1.0 0.0 255 0 0
-0.01581 0.02929 0.38378 0.0 -0.0 -1.0 255 0 0
-0.01897 0.04529 0.38389 1.0 0.0 1.0 255 0 0
-0.0054 0.04109 0.38713 0.0 0.0 1.0 255 0 0
-0.01328 0.03801 0.38381 0.0 0.0 -1.0 255 0 0
-0.011 0.03264 0.38374 1.0 -1.0 0.0 255 0 0
-0.00654 0.04092 0.38342 0.0 -1.0 1.0 255 0 0
-0.00578 0.0413 0.38379 0.0 -1.0 1.0 255 0 0
-0.01898 0.02821 0.38372 0.0 -0.0 -1.0 255 0 0
-0.0145 0.02856 0.38725 1.0 -1.0 -0.0 255 0 0
-0.01058 0.03427 0.38374 1.0 -0.0 -1.0 255 0 0
-0.00963 0.03465 0.3838 1.0 -0.0 -0.0 255 0 0
-0.00831 0.04148 0.38395 0.0 -1.0 1.0 255 0 0
-0.00545 0.0374 0.38375 0.0 1.0 -0.0 255 0 0
-0.01054 0.03496 0.38386 0.0 -0.0 -1.0 255 0 0
-0.01785 0.04223 0.38709 0.0 1.0 0.0 255 0 0
-0.02033 0.04144 0.39411 0.0 1.0 0.0 255 0 0
-0.00414 0.03626 0.38488 1.0 -0.0 -0.0 255 0 0
-0.00763 0.04123 0.38356 0.0 -1.0 1.0 255 0 0
-0.01867 0.04185 0.39443 0.0 1.0 -0.0 255 0 0
-0.01266 0.04209 0.38429 0.0 1.0 0.0 255 0 0
-0.00871 0.03382 0.38722 1.0 -1.0 -0.0 255 0 0
-0.02048 0.04346 0.38692 1.0 1.0 1.0 255 0 0
-0.00971 0.03412 0.38702 1.0 -1.0 -0.0 255 0 0
-0.01058 0.0389 0.38387 0.0 0.0 -1.0 255 0 0
-0.0203 0.04309 0.39153 0.0 1.0 0.0 255 0 0
-0.01194 0.04119 0.38393 0.0 1.0 1.0 255 0 0
-0.02119 0.04285 0.39416 1.0 1.0 0.0 255 0 0
-0.00991 0.03909 0.38403 0.0 -0.0 1.0 255 0 0
-0.02559 0.04538 0.39193 1.0 1.0 -0.0 255 0 0
-0.0171 0.02874 0.3839 0.0 -0.0 -1.0 255 0 0
-0.02342 0.04447 0.39432 1.0 1.0 -0.0 255 0 0
-0.01593 0.04202 0.38693 0.0 1.0 -0.0 255 0 0
-0.01866 0.04086 0.39422 0.0 1.0 -0.0 255 0 0
-0.02235 0.04519 0.38687 1.0 1.0 1.0 255 0 0
-0.01072 0.03178 0.38385 1.0 -1.0 0.0 255 0 0
-0.01056 0.03593 0.38398 0.0 -0.0 -1.0 255 0 0
-0.01547 0.04215 0.38385 0.0 1.0 1.0 255 0 0
-0.01366 0.0298 0.38381 1.0 -1.0 -0.0 255 0 0
-0.00184 0.03555 0.38403 1.0 -0.0 0.0 255 0 0
-0.01432 0.02688 0.39153 1.0 -1.0 -0.0 255 0 0
-0.02305 0.04353 0.39166 0.0 1.0 -0.0 255 0 0
-0.01124 0.03623 0.38394 0.0 0.0 -1.0 255 0 0
-0.01246 0.03977 0.39345 0.0 -1.0 0.0 255 0 0
-0.01263 0.03992 0.39405 0.0 -1.0 0.0 255 0 0
-0.02093 0.02601 0.38394 0.0 -1.0 -1.0 255 0 0
-0.01708 0.02527 0.38689 1.0 -1.0 -0.0 255 0 0
-0.00955 0.03455 0.38648 1.0 -1.0 -0.0 255 0 0
-0.01206 0.03757 0.38396 0.0 0.0 -1.0 255 0 0
-0.00551 0.0388 0.38704 1.0 -0.0 1.0 255 0 0
-0.02277 0.04277 0.39416 1.0 1.0 0.0 255 0 0
-0.02295 0.04441 0.38705 1.0 1.0 0.0 255 0 0
-0.0242 0.04513 0.39407 1.0 1.0 -0.0 255 0 0
-0.02167 0.04206 0.39409 1.0 1.0 -0.0 255 0 0
-0.01538 0.02736 0.38381 0.0 -1.0 -1.0 255 0 0
-0.01654 0.02842 0.38402 0.0 -0.0 -1.0 255 0 0
-0.01101 0.03042 0.39177 1.0 -1.0 0.0 255 0 0
-0.01207 0.04216 0.38677 0.0 1.0 -0.0 255 0 0
-0.01619 0.04085 0.38718 0.0 1.0 -0.0 255 0 0
-0.00368 0.0389 0.38677 0.0 0.0 -1.0 255 0 0
-0.01657 0.04125 0.39424 0.0 1.0 -0.0 255 0 0
-0.0019 0.03489 0.38398 1.0 -0.0 0.0 255 0 0
-0.01838 0.04126 0.38708 0.0 1.0 0.0 255 0 0
-0.01144 0.03709 0.38397 0.0 0.0 -1.0 255 0 0
-0.0215 0.02644 0.38395 0.0 -0.0 -1.0 255 0 0
-0.00992 0.03408 0.38418 1.0 -1.0 -0.0 255 0 0
-0.01046 0.04092 0.38394 0.0 1.0 1.0 255 0 0
-0.02098 0.04401 0.38675 1.0 1.0 1.0 255 0 0
-0.00609 0.04201 0.387 0.0 1.0 1.0 255 0 0
-0.00874 0.03587 0.38388 1.0 -0.0 -1.0 255 0 0
-0.009 0.04138 0.38337 0.0 1.0 -0.0 255 0 0
-0.00847 0.03722 0.38413 0.0 -0.0 -1.0 255 0 0
-0.02029 0.04643 0.38378 0.0 1.0 1.0 255 0 0
-0.02542 0.04542 0.39422 1.0 1.0 -0.0 255 0 0
-0.00799 0.0395 0.3841 0.0 0.0 1.0 255 0 0
-0.01817 0.04362 0.38395 0.0 1.0 1.0 255 0 0
-0.02058 0.02553 0.38436 0.0 -1.0 -1.0 255 0 0
-0.01749 0.04249 0.38447 0.0 1.0 1.0 255 0 0
-0.02376 0.04543 0.38708 1.0 1.0 1.0 255 0 0
-0.01814 0.02663 0.3841 0.0 -1.0 -1.0 255 0 0
-0.00099 0.03762 0.38407 1.0 -1.0 0.0 255 0 0
-0.00868 0.0355 0.38696 1.0 -1.0 0.0 255 0 0
-0.01453 0.02762 0.38676 1.0 -1.0 -0.0 255 0 0
-0.02223 0.04377 0.3869 1.0 1.0 1.0 255 0 0
-0.01237 0.02971 0.38677 1.0 -1.0 -0.0 255 0 0
-0.00775 0.03507 0.38407 1.0 -1.0 0.0 255 0 0
-0.00203 0.03226 0.38386 1.0 -1.0 0.0 255 0 0
-0.01352 0.02897 0.38398 1.0 -1.0 -0.0 255 0 0
-0.01931 0.04106 0.39416 0.0 1.0 -0.0 255 0 0
-0.02204 0.04358 0.39418 1.0 1.0 0.0 255 0 0
-0.01652 0.04029 0.39398 0.0 1.0 -0.0 255 0 0
-0.01275 0.02974 0.38404 1.0 -1.0 -0.0 255 0 0
-0.01079 0.03739 0.38412 0.0 0.0 -1.0 255 0 0
-0.02205 0.043 0.39174 0.0 1.0 0.0 255 0 0
-0.02148 0.04253 0.39178 1.0 1.0 0.0 255 0 0
-0.00901 0.04234 0.38676 0.0 -1.0 -0.0 255 0 0
-0.01332 0.04101 0.39152 0.0 1.0 0.0 255 0 0
-0.01055 0.03668 0.38403 0.0 0.0 -1.0 255 0 0
-0.01171 0.04056 0.39411 0.0 1.0 0.0 255 0 0
-0.01336 0.03993 0.39415 0.0 1.0 -0.0 255 0 0
-0.01519 0.04003 0.39329 0.0 1.0 -0.0 255 0 0
-0.02158 0.04461 0.38664 1.0 1.0 1.0 255 0 0
-0.01083 0.04059 0.39173 0.0 1.0 0.0 255 0 0
-0.01285 0.03925 0.38418 0.0 0.0 -1.0 255 0 0
-0.0077 0.03676 0.38417 1.0 -1.0 -0.0 255 0 0
-0.00747 0.03564 0.38444 1.0 -1.0 0.0 255 0 0
-0.01897 0.02647 0.3841 0.0 -1.0 -1.0 255 0 0
-0.00191 0.03413 0.38389 1.0 -0.0 0.0 255 0 0
-0.01983 0.04296 0.38707 0.0 1.0 0.0 255 0 0
-0.01368 0.02826 0.38707 1.0 -1.0 -0.0 255 0 0
-0.01557 0.02663 0.38679 1.0 -1.0 -0.0 255 0 0
-0.01402 0.02853 0.38407 1.0 -1.0 -0.0 255 0 0
-0.00835 0.03542 0.39141 1.0 -0.0 0.0 255 0 0
-0.02368 0.0435 0.394 1.0 1.0 0.0 255 0 0
-0.00321 0.03778 0.38683 0.0 0.0 -1.0 255 0 0
-0.02562 0.04721 0.3923 1.0 0.0 0.0 255 0 0
-0.01241 0.0385 0.38414 0.0 0.0 -1.0 255 0 0
-0.01038 0.03939 0.39177 0.0 1.0 -0.0 255 0 0
-0.01131 0.03956 0.39238 0.0 1.0 -0.0 255 0 0
-0.01447 0.04008 0.39138 0.0 1.0 0.0 255 0 0
-0.01432 0.04225 0.38458 0.0 1.0 0.0 255 0 0
-0.01406 0.0425 0.384 0.0 1.0 1.0 255 0 0
-0.02133 0.04299 0.3868 1.0 1.0 0.0 255 0 0
-0.01139 0.03794 0.38417 0.0 0.0 -1.0 255 0 0
-0.01171 0.03194 0.38413 1.0 -1.0 -0.0 255 0 0
-0.01475 0.04263 0.38418 0.0 1.0 1.0 255 0 0
-0.0103 0.03204 0.3866 1.0 -1.0 -0.0 255 0 0
-0.00965 0.03454 0.38462 1.0 -1.0 -0.0 255 0 0
-0.01032 0.0335 0.38384 1.0 -0.0 0.0 255 0 0
-0.0062 0.04198 0.38438 0.0 -1.0 1.0 255 0 0
-0.00981 0.03648 0.38403 0.0 0.0 -1.0 255 0 0
-0.01163 0.02949 0.39167 1.0 -1.0 0.0 255 0 0
-0.00908 0.03653 0.38402 0.0 -0.0 -1.0 255 0 0
-0.01978 0.02703 0.38416 0.0 -1.0 -1.0 255 0 0
-0.01937 0.02757 0.38398 0.0 -1.0 -1.0 255 0 0
-0.01203 0.04073 0.38708 0.0 -1.0 -0.0 255 0 0
-0.00352 0.0372 0.38655 1.0 0.0 -1.0 255 0 0
-0.00321 0.0366 0.38667 0.0 0.0 -1.0 255 0 0
-0.01399 0.04072 0.38735 0.0 1.0 -0.0 255 0 0
-0.01414 0.042 0.38647 0.0 -1.0 0.0 255 0 0
-0.00802 0.04013 0.3845 1.0 0.0 -0.0 255 0 0
