ply
format ascii 1.0
element vertex 1066
property float x
property float y
property float z
property float nx
property float ny
property float nz
property uchar red
property uchar green
property uchar blue
element face 0
end_header
-0.00162 0.04525 0.38062 1.0 1.0 -0.0 255 0 0
-0.00316 0.04581 0.3818 0.0 1.0 0.0 255 0 0
-0.00253 0.04576 0.38065 0.0 1.0 0.0 255 0 0
-0.00101 0.04341 0.38144 1.0 -1.0 0.0 255 0 0
-0.00453 0.04671 0.38094 0.0 1.0 0.0 255 0 0
-0.00555 0.04149 0.38109 0.0 -1.0 1.0 255 0 0
-0.00917 0.04391 0.38083 1.0 -0.0 -1.0 255 0 0
-0.00867 0.04454 0.38141 1.0 -0.0 -0.0 255 0 0
-0.00697 0.04229 0.38115 0.0 1.0 -0.0 255 0 0
-0.00726 0.04434 0.38101 0.0 -1.0 0.0 255 0 0
-0.00682 0.04467 0.38169 0.0 1.0 -0.0 255 0 0
-0.0012 0.04489 0.38124 1.0 1.0 0.0 255 0 0
-0.00932 0.04171 0.38132 1.0 -0.0 -1.0 255 0 0
-0.00145 0.04582 0.38128 1.0 1.0 0.0 255 0 0
-0.00347 0.04275 0.38096 0.0 -1.0 1.0 255 0 0
-0.00808 0.04215 0.38119 0.0 1.0 -1.0 255 0 0
-0.00037 0.0439 0.38131 1.0 -0.0 0.0 255 0 0
-0.00265 0.04328 0.38109 0.0 -1.0 1.0 255 0 0
-0.00927 0.0432 0.38108 1.0 -0.0 -1.0 255 0 0
-0.00323 0.04662 0.38101 0.0 1.0 0.0 255 0 0
-0.00774 0.04348 0.38136 0.0 -0.0 -1.0 255 0 0
-0.00365 0.04159 0.38124 0.0 -1.0 1.0 255 0 0
-0.00673 0.04173 0.38206 0.0 -1.0 1.0 255 0 0
-0.00495 0.04229 0.38105 0.0 -1.0 1.0 255 0 0
-0.00361 0.04276 0.38283 0.0 -1.0 1.0 255 0 0
-0.00883 0.04131 0.38172 0.0 -1.0 -0.0 255 0 0
-0.00412 0.04278 0.38135 0.0 -1.0 1.0 255 0 0
-0.0079 0.04137 0.38133 0.0 1.0 -0.0 255 0 0
-0.00385 0.04565 0.38055 0.0 -1.0 -0.0 255 0 0
-0.00392 0.04325 0.3819 0.0 -1.0 1.0 255 0 0
-0.0087 0.04244 0.38193 1.0 -0.0 -1.0 255 0 0
-0.00812 0.04568 0.38165 1.0 -0.0 -0.0 255 0 0
-0.00597 0.04279 0.38169 0.0 0.0 -1.0 255 0 0
-0.00612 0.04692 0.38178 0.0 -1.0 -0.0 255 0 0
-0.00039 0.04507 0.38142 1.0 1.0 0.0 255 0 0
-0.00317 0.04382 0.38223 0.0 -1.0 1.0 255 0 0
-0.00693 0.04332 0.38188 0.0 -0.0 1.0 255 0 0
-0.0018 0.04278 0.38156 0.0 -1.0 1.0 255 0 0
-0.00509 0.04683 0.38215 0.0 1.0 -0.0 255 0 0
-0.00694 0.04666 0.38197 0.0 -1.0 -0.0 255 0 0
-0.00366 0.04214 0.38205 0.0 -1.0 1.0 255 0 0
-0.00048 0.04457 0.38206 1.0 0.0 0.0 255 0 0
-0.00233 0.0462 0.38164 0.0 1.0 0.0 255 0 0
-0.00639 0.04164 0.3814 0.0 -1.0 0.0 255 0 0
-0.00446 0.04184 0.38185 0.0 -1.0 1.0 255 0 0
-0.00394 0.04576 0.38155 0.0 -1.0 -0.0 255 0 0
-0.0067 0.04415 0.37972 0.0 -1.0 0.0 255 0 0
-0.00628 0.04465 0.38105 1.0 -1.0 -0.0 255 0 0
-0.00752 0.04193 0.38249 0.0 1.0 -1.0 255 0 0
-0.0038 0.04645 0.38246 0.0 1.0 0.0 255 0 0
-0.0077 0.04612 0.3821 1.0 -1.0 -0.0 255 0 0
-0.00214 0.046 0.38239 0.0 1.0 0.0 255 0 0
-0.00563 0.04338 0.3823 0.0 0.0 1.0 255 0 0
-0.00163 0.04569 0.3831 1.0 1.0 0.0 255 0 0
-0.00818 0.04172 0.38215 0.0 1.0 -1.0 255 0 0
-0.0015 0.04378 0.38251 1.0 -1.0 0.0 255 0 0
-0.00847 0.04383 0.38217 1.0 -0.0 -1.0 255 0 0
-0.00344 0.04432 0.38303 0.0 -0.0 1.0 255 0 0
-0.00189 0.04479 0.38235 1.0 0.0 1.0 255 0 0
-0.00645 0.04408 0.38257 0.0 -1.0 -1.0 255 0 0
-0.00474 0.04528 0.38137 0.0 -1.0 0.0 255 0 0
-0.00628 0.04492 0.38281 0.0 0.0 -1.0 255 0 0
-0.00257 0.04434 0.38241 1.0 -0.0 1.0 255 0 0
-0.00823 0.04309 0.38256 1.0 0.0 -1.0 255 0 0
-0.00397 0.04374 0.38253 0.0 -1.0 1.0 255 0 0
-0.00375 0.04626 0.38322 0.0 1.0 0.0 255 0 0
-0.00287 0.04273 0.38242 0.0 -1.0 1.0 255 0 0
-0.00615 0.04694 0.38262 0.0 -1.0 -0.0 255 0 0
-0.00517 0.0421 0.38214 0.0 -1.0 1.0 255 0 0
-0.00477 0.04385 0.38287 0.0 1.0 -1.0 255 0 0
-0.00426 0.04575 0.38231 0.0 1.0 0.0 255 0 0
-0.00222 0.04504 0.38307 1.0 0.0 0.0 255 0 0
-0.00686 0.04226 0.38287 0.0 -1.0 1.0 255 0 0
-0.00607 0.04695 0.38334 0.0 1.0 0.0 255 0 0
-0.00452 0.04655 0.38281 0.0 1.0 -0.0 255 0 0
-0.00594 0.04223 0.38256 0.0 -1.0 1.0 255 0 0
-0.00553 0.04494 0.38122 0.0 -1.0 0.0 255 0 0
-0.00798 0.04511 0.38293 1.0 -0.0 -0.0 255 0 0
-0.00501 0.04252 0.38275 0.0 -1.0 1.0 255 0 0
-0.0073 0.04293 0.38326 0.0 1.0 -1.0 255 0 0
-0.00283 0.04614 0.38293 0.0 1.0 0.0 255 0 0
-0.00704 0.04666 0.38291 1.0 -1.0 -0.0 255 0 0
-0.00532 0.0469 0.38287 0.0 1.0 -0.0 255 0 0
-0.00121 0.04554 0.38251 1.0 1.0 0.0 255 0 0
-0.00334 0.04476 0.38364 0.0 -1.0 1.0 255 0 0
-0.00755 0.04611 0.38311 1.0 -1.0 -0.0 255 0 0
-0.00493 0.04434 0.38345 1.0 -0.0 -1.0 255 0 0
-0.0029 0.04337 0.38324 0.0 -1.0 1.0 255 0 0
-0.00484 0.04676 0.38353 0.0 1.0 -0.0 255 0 0
-0.00276 0.04553 0.38347 0.0 1.0 0.0 255 0 0
-0.00438 0.04296 0.3832 0.0 -1.0 1.0 255 0 0
-0.00472 0.04562 0.38312 1.0 1.0 1.0 255 0 0
-0.00422 0.04573 0.384 1.0 1.0 0.0 255 0 0
-0.00789 0.04434 0.38321 1.0 0.0 -0.0 255 0 0
-0.0042 0.04485 0.38395 1.0 -0.0 -1.0 255 0 0
-0.00749 0.04367 0.38351 1.0 0.0 -1.0 255 0 0
-0.00106 0.04455 0.38306 1.0 0.0 0.0 255 0 0
-0.00404 0.04354 0.38391 0.0 -1.0 0.0 255 0 0
-0.0056 0.04283 0.38347 0.0 -1.0 0.0 255 0 0
-0.00564 0.04535 0.38313 1.0 0.0 -1.0 255 0 0
-0.00267 0.04598 0.38423 0.0 1.0 0.0 255 0 0
-0.00184 0.0442 0.38346 1.0 -1.0 0.0 255 0 0
-0.00773 0.0453 0.38367 1.0 -0.0 -0.0 255 0 0
-0.00498 0.04331 0.38391 0.0 -1.0 1.0 255 0 0
-0.00329 0.04382 0.384 0.0 -1.0 0.0 255 0 0
-0.00732 0.04623 0.38398 1.0 -1.0 -0.0 255 0 0
-0.00616 0.04696 0.38415 0.0 -1.0 0.0 255 0 0
-0.00498 0.04495 0.38408 0.0 -1.0 -1.0 255 0 0
-0.00652 0.04296 0.38379 0.0 1.0 -0.0 255 0 0
-0.00445 0.04381 0.38444 1.0 -1.0 0.0 255 0 0
-0.0019 0.04468 0.3841 1.0 -1.0 0.0 255 0 0
-0.00723 0.04466 0.38472 1.0 0.0 -0.0 255 0 0
-0.00344 0.04619 0.38464 1.0 1.0 0.0 255 0 0
-0.00555 0.04561 0.38398 0.0 1.0 -1.0 255 0 0
-0.00433 0.04662 0.38447 0.0 1.0 -0.0 255 0 0
-0.00683 0.04676 0.38456 1.0 -1.0 0.0 255 0 0
-0.00391 0.0444 0.38514 1.0 -1.0 0.0 255 0 0
-0.00549 0.04701 0.38448 0.0 1.0 -0.0 255 0 0
-0.00446 0.0454 0.38462 1.0 -0.0 -1.0 255 0 0
-0.0016 0.04535 0.38399 1.0 1.0 0.0 255 0 0
-0.00609 0.04348 0.38458 0.0 -1.0 1.0 255 0 0
-0.00751 0.04549 0.38447 1.0 -0.0 -0.0 255 0 0
-0.00411 0.04467 0.38598 0.0 -1.0 0.0 255 0 0
-0.00673 0.04361 0.3842 1.0 1.0 -1.0 255 0 0
-0.00323 0.04436 0.38472 0.0 -1.0 1.0 255 0 0
-0.0021 0.04534 0.38472 1.0 0.0 1.0 255 0 0
-0.00658 0.04692 0.3853 1.0 -1.0 0.0 255 0 0
-0.00734 0.04562 0.38531 1.0 0.0 -0.0 255 0 0
-0.00278 0.0448 0.38509 0.0 -1.0 0.0 255 0 0
-0.0054 0.0438 0.38505 0.0 -1.0 0.0 255 0 0
-0.00698 0.04497 0.38569 1.0 1.0 -0.0 255 0 0
-0.00587 0.0471 0.38554 0.0 -1.0 0.0 255 0 0
-0.00714 0.04635 0.3857 1.0 -0.0 -0.0 255 0 0
-0.00462 0.04421 0.38532 0.0 -1.0 0.0 255 0 0
-0.00438 0.04678 0.38523 0.0 1.0 -0.0 255 0 0
-0.00617 0.04407 0.3853 0.0 1.0 -0.0 255 0 0
-0.00326 0.0451 0.38576 1.0 -1.0 0.0 255 0 0
-0.00305 0.04593 0.3857 1.0 0.0 0.0 255 0 0
-0.00508 0.04712 0.38584 0.0 1.0 -0.0 255 0 0
-0.00638 0.04464 0.38599 1.0 1.0 -0.0 255 0 0
-0.00429 0.04688 0.38599 0.0 1.0 -0.0 255 0 0
-0.00496 0.04439 0.38621 0.0 -1.0 0.0 255 0 0
-0.00393 0.04674 0.38664 1.0 1.0 -0.0 255 0 0
-0.00322 0.04562 0.38645 1.0 0.0 0.0 255 0 0
-0.004 0.04518 0.38706 1.0 -0.0 0.0 255 0 0
-0.00348 0.04612 0.38714 1.0 0.0 0.0 255 0 0
-0.01298 0.0411 0.39061 0.0 -0.0 1.0 255 0 0
-0.01181 0.03995 0.39066 0.0 -0.0 -1.0 255 0 0
-0.01343 0.0401 0.39075 0.0 -0.0 -1.0 255 0 0
-0.01142 0.0404 0.39106 0.0 -0.0 -1.0 255 0 0
-0.01212 0.04155 0.39084 0.0 0.0 -1.0 255 0 0
-0.01423 0.03928 0.39076 0.0 -0.0 -1.0 255 0 0
-0.01316 0.04083 0.39128 1.0 -1.0 0.0 255 0 0
-0.01136 0.04125 0.39071 0.0 0.0 -1.0 255 0 0
-0.01255 0.03983 0.39116 0.0 -1.0 -1.0 255 0 0
-0.01356 0.03911 0.39154 1.0 -0.0 -1.0 255 0 0
-0.01096 0.04073 0.39171 0.0 -0.0 -1.0 255 0 0
-0.01275 0.04095 0.39195 1.0 -0.0 0.0 255 0 0
-0.01266 0.03902 0.39157 0.0 -1.0 0.0 255 0 0
-0.01213 0.04183 0.39168 1.0 -1.0 0.0 255 0 0
-0.01322 0.04015 0.39191 1.0 0.0 -1.0 255 0 0
-0.01184 0.03965 0.39192 0.0 -1.0 0.0 255 0 0
-0.00686 0.04523 0.38668 1.0 0.0 0.0 255 0 0
-0.00484 0.04712 0.38682 0.0 1.0 -0.0 255 0 0
-0.00605 0.0472 0.38691 0.0 -1.0 0.0 255 0 0
-0.00736 0.04613 0.38716 1.0 0.0 0.0 255 0 0
-0.0038 0.04569 0.38768 1.0 0.0 0.0 255 0 0
-0.00614 0.04467 0.38697 1.0 1.0 0.0 255 0 0
-0.00714 0.04682 0.38756 1.0 -1.0 0.0 255 0 0
-0.00414 0.04675 0.38752 1.0 1.0 -0.0 255 0 0
-0.00686 0.04479 0.38778 1.0 1.0 0.0 255 0 0
-0.00579 0.04743 0.38781 0.0 -1.0 0.0 255 0 0
-0.00527 0.04433 0.38815 0.0 -1.0 -0.0 255 0 0
-0.00395 0.04637 0.38821 1.0 0.0 0.0 255 0 0
-0.00427 0.04496 0.38825 1.0 -1.0 0.0 255 0 0
-0.00754 0.04674 0.38838 1.0 -1.0 0.0 255 0 0
-0.00746 0.04531 0.38792 1.0 0.0 0.0 255 0 0
-0.00786 0.04557 0.38856 1.0 0.0 0.0 255 0 0
-0.00538 0.04749 0.38861 0.0 1.0 -0.0 255 0 0
-0.00398 0.04719 0.38842 1.0 1.0 0.0 255 0 0
-0.00466 0.04725 0.38887 0.0 1.0 0.0 255 0 0
-0.00726 0.04457 0.38847 0.0 1.0 0.0 255 0 0
-0.00676 0.04747 0.38889 0.0 -1.0 0.0 255 0 0
-0.00578 0.04416 0.3887 0.0 -1.0 -0.0 255 0 0
-0.00399 0.04681 0.38914 1.0 1.0 0.0 255 0 0
-0.00793 0.04644 0.38898 1.0 -1.0 0.0 255 0 0
-0.00335 0.0461 0.38895 1.0 0.0 0.0 255 0 0
-0.0043 0.04513 0.38907 1.0 -1.0 0.0 255 0 0
-0.00824 0.04585 0.38937 1.0 -0.0 1.0 255 0 0
-0.00737 0.04411 0.38925 0.0 1.0 1.0 255 0 0
-0.00577 0.044 0.38964 0.0 -1.0 -0.0 255 0 0
-0.0049 0.04452 0.38962 1.0 -1.0 0.0 255 0 0
-0.00646 0.04393 0.38915 0.0 1.0 0.0 255 0 0
-0.00832 0.04453 0.38949 1.0 0.0 1.0 255 0 0
-0.00775 0.04691 0.38963 1.0 -1.0 0.0 255 0 0
-0.00464 0.04683 0.38975 1.0 1.0 0.0 255 0 0
-0.00531 0.04716 0.39013 0.0 1.0 0.0 255 0 0
-0.00655 0.0436 0.38982 0.0 -1.0 -0.0 255 0 0
-0.00869 0.04593 0.39021 1.0 -0.0 0.0 255 0 0
-0.00607 0.0475 0.38984 0.0 1.0 0.0 255 0 0
-0.00783 0.04379 0.3899 0.0 1.0 0.0 255 0 0
-0.00723 0.04331 0.39031 0.0 1.0 0.0 255 0 0
-0.00704 0.04731 0.39012 0.0 -1.0 0.0 255 0 0
-0.00414 0.04601 0.38993 1.0 0.0 0.0 255 0 0
-0.00877 0.04453 0.39017 1.0 0.0 1.0 255 0 0
-0.00474 0.04489 0.3903 1.0 -0.0 0.0 255 0 0
-0.00635 0.04731 0.39051 0.0 1.0 0.0 255 0 0
-0.00515 0.04445 0.39088 1.0 -0.0 0.0 255 0 0
-0.00795 0.04333 0.39062 0.0 1.0 1.0 255 0 0
-0.00628 0.0432 0.39091 0.0 -1.0 -0.0 255 0 0
-0.00918 0.04494 0.3908 1.0 0.0 0.0 255 0 0
-0.00864 0.04648 0.3908 1.0 -1.0 0.0 255 0 0
-0.00491 0.04612 0.39085 1.0 0.0 0.0 255 0 0
-0.005 0.04533 0.39093 1.0 -0.0 0.0 255 0 0
-0.00896 0.04409 0.39076 1.0 0.0 1.0 255 0 0
-0.00817 0.04699 0.39111 1.0 -1.0 -0.0 255 0 0
-0.00555 0.04354 0.39094 1.0 -1.0 -0.0 255 0 0
-0.00513 0.04591 0.39154 1.0 0.0 0.0 255 0 0
-0.00557 0.04687 0.39094 1.0 1.0 0.0 255 0 0
-0.00918 0.0455 0.39143 1.0 -0.0 0.0 255 0 0
-0.00716 0.04742 0.39107 0.0 -1.0 -0.0 255 0 0
-0.0092 0.04388 0.39184 1.0 0.0 1.0 255 0 0
-0.00591 0.04315 0.39162 1.0 -1.0 -0.0 255 0 0
-0.00607 0.04716 0.39144 0.0 1.0 0.0 255 0 0
-0.00704 0.04303 0.39101 0.0 -1.0 -0.0 255 0 0
-0.00842 0.04673 0.39177 1.0 -1.0 -0.0 255 0 0
-0.00513 0.04493 0.39174 1.0 -0.0 0.0 255 0 0
-0.0059 0.04624 0.39231 1.0 1.0 0.0 255 0 0
-0.00776 0.04291 0.39142 0.0 1.0 1.0 255 0 0
-0.00936 0.04489 0.39205 1.0 -0.0 0.0 255 0 0
-0.00533 0.04394 0.39222 1.0 -0.0 0.0 255 0 0
-0.00836 0.04275 0.39203 0.0 1.0 1.0 255 0 0
-0.00615 0.0459 0.39295 1.0 1.0 0.0 255 0 0
-0.0055 0.04536 0.39252 1.0 0.0 0.0 255 0 0
-0.00842 0.04614 0.3926 1.0 -1.0 -0.0 255 0 0
-0.00746 0.04701 0.39206 0.0 -1.0 -0.0 255 0 0
-0.00684 0.04676 0.39234 0.0 1.0 1.0 255 0 0
-0.0055 0.04375 0.3931 1.0 -0.0 0.0 255 0 0
-0.00574 0.0453 0.39329 1.0 0.0 0.0 255 0 0
-0.00789 0.04587 0.39311 0.0 -1.0 -1.0 255 0 0
-0.00509 0.04441 0.39322 1.0 0.0 0.0 255 0 0
-0.00719 0.04589 0.39333 0.0 1.0 1.0 255 0 0
-0.00649 0.04567 0.39363 0.0 1.0 0.0 255 0 0
0.00653 0.01822 0.40234 0.0 0.0 1.0 255 0 0
0.01164 0.02026 0.39945 0.0 1.0 1.0 255 0 0
0.0048 0.03132 0.39941 0.0 0.0 1.0 255 0 0
0.00824 0.01813 0.40206 0.0 0.0 1.0 255 0 0
0.00909 0.01772 0.40209 0.0 0.0 1.0 255 0 0
0.0074 0.02726 0.3994 0.0 0.0 1.0 255 0 0
0.00547 0.01909 0.40203 0.0 0.0 1.0 255 0 0
0.00741 0.0264 0.39942 0.0 -0.0 1.0 255 0 0
0.01018 0.01725 0.40196 0.0 0.0 1.0 255 0 0
-0.00366 0.03223 0.39914 1.0 1.0 -0.0 255 0 0
0.00997 0.01821 0.40192 0.0 0.0 1.0 255 0 0
0.00252 0.02841 0.39927 0.0 0.0 1.0 255 0 0
0.00181 0.02883 0.39942 0.0 0.0 1.0 255 0 0
0.0091 0.02077 0.39939 0.0 1.0 1.0 255 0 0
0.00151 0.02995 0.39929 0.0 -0.0 -1.0 255 0 0
0.00658 0.02839 0.3995 0.0 0.0 1.0 255 0 0
0.00943 0.01686 0.40165 0.0 0.0 1.0 255 0 0
0.00224 0.03372 0.39936 0.0 0.0 1.0 255 0 0
0.00857 0.01874 0.40173 0.0 0.0 1.0 255 0 0
0.00729 0.0252 0.39947 0.0 0.0 1.0 255 0 0
0.00727 0.01875 0.4019 0.0 0.0 1.0 255 0 0
0.00901 0.02307 0.39943 0.0 0.0 1.0 255 0 0
0.01073 0.01799 0.40186 0.0 0.0 1.0 255 0 0
0.00611 0.01938 0.40173 0.0 0.0 1.0 255 0 0
0.00822 0.01724 0.40168 0.0 0.0 1.0 255 0 0
0.00746 0.01751 0.40175 0.0 1.0 1.0 255 0 0
0.00565 0.01828 0.40167 0.0 0.0 1.0 255 0 0
0.01074 0.01878 0.40156 0.0 0.0 1.0 255 0 0
0.00994 0.02299 0.39933 0.0 0.0 1.0 255 0 0
0.01108 0.02264 0.39929 0.0 -0.0 -1.0 255 0 0
0.01263 0.0182 0.40133 0.0 0.0 1.0 255 0 0
0.0119 0.018 0.40158 0.0 0.0 1.0 255 0 0
0.00818 0.02621 0.39928 0.0 0.0 1.0 255 0 0
0.00498 0.02011 0.40166 0.0 0.0 1.0 255 0 0
0.01304 0.02275 0.39931 0.0 0.0 1.0 255 0 0
0.00525 0.02346 0.3994 0.0 0.0 1.0 255 0 0
0.00121 0.03123 0.39925 0.0 -1.0 -0.0 255 0 0
0.0004 0.03145 0.39929 0.0 -1.0 0.0 255 0 0
0.00216 0.02951 0.39923 0.0 0.0 1.0 255 0 0
0.00281 0.02912 0.39915 0.0 -0.0 1.0 255 0 0
0.00076 0.03012 0.39946 1.0 -0.0 -1.0 255 0 0
0.00386 0.02077 0.40165 0.0 0.0 1.0 255 0 0
0.01179 0.02198 0.39944 0.0 -0.0 -1.0 255 0 0
0.00944 0.01902 0.40153 0.0 0.0 1.0 255 0 0
0.00846 0.0214 0.39915 0.0 0.0 1.0 255 0 0
0.01489 0.02209 0.39879 0.0 -1.0 -1.0 255 0 0
-0.00403 0.0332 0.39904 1.0 1.0 -1.0 255 0 0
0.00949 0.02382 0.39924 0.0 0.0 1.0 255 0 0
0.0044 0.01932 0.40131 0.0 0.0 1.0 255 0 0
0.00693 0.01804 0.40146 0.0 0.0 1.0 255 0 0
0.00626 0.01859 0.40128 0.0 1.0 1.0 255 0 0
0.00808 0.0198 0.40121 0.0 0.0 1.0 255 0 0
0.0118 0.02312 0.39922 0.0 0.0 1.0 255 0 0
0.00658 0.02954 0.39922 0.0 0.0 1.0 255 0 0
0.00657 0.01999 0.40136 0.0 0.0 1.0 255 0 0
0.01391 0.02264 0.3992 0.0 0.0 1.0 255 0 0
0.00852 0.02475 0.39925 0.0 0.0 1.0 255 0 0
0.00393 0.02437 0.3996 0.0 0.0 1.0 255 0 0
0.01069 0.02373 0.39917 0.0 0.0 1.0 255 0 0
0.00367 0.02669 0.39916 0.0 1.0 1.0 255 0 0
0.00411 0.02575 0.39915 0.0 0.0 1.0 255 0 0
0.00581 0.02976 0.39951 0.0 0.0 1.0 255 0 0
0.00353 0.02009 0.40131 0.0 0.0 1.0 255 0 0
0.00023 0.0351 0.39911 0.0 1.0 0.0 255 0 0
-0.00097 0.03183 0.39875 0.0 1.0 0.0 255 0 0
-0.00067 0.03594 0.39848 0.0 1.0 0.0 255 0 0
-0.00048 0.03028 0.39871 1.0 -1.0 1.0 255 0 0
0.01587 0.02283 0.39912 0.0 -1.0 -1.0 255 0 0
0.00281 0.03093 0.39913 0.0 0.0 1.0 255 0 0
0.01245 0.02023 0.39945 0.0 -0.0 -1.0 255 0 0
0.01427 0.02155 0.39925 0.0 -0.0 -1.0 255 0 0
0.00282 0.03017 0.39909 0.0 0.0 1.0 255 0 0
0.01111 0.02085 0.39901 0.0 0.0 1.0 255 0 0
0.00899 0.01779 0.4013 0.0 1.0 1.0 255 0 0
0.00972 0.01748 0.4013 0.0 0.0 1.0 255 0 0
0.003 0.03355 0.39911 0.0 0.0 1.0 255 0 0
0.00082 0.02439 0.40103 0.0 0.0 1.0 255 0 0
0.00655 0.02305 0.39904 0.0 0.0 1.0 255 0 0
0.0076 0.02218 0.39901 0.0 0.0 1.0 255 0 0
0.00448 0.03257 0.39904 0.0 0.0 1.0 255 0 0
0.0029 0.02257 0.40135 0.0 0.0 1.0 255 0 0
0.00141 0.02412 0.40138 0.0 0.0 1.0 255 0 0
0.00988 0.02455 0.39912 0.0 0.0 1.0 255 0 0
0.00322 0.02729 0.3992 0.0 0.0 1.0 255 0 0
0.00933 0.02543 0.39913 0.0 0.0 1.0 255 0 0
0.00762 0.02433 0.3995 0.0 0.0 1.0 255 0 0
0.01146 0.02396 0.39912 0.0 0.0 1.0 255 0 0
0.00539 0.02069 0.40132 0.0 0.0 1.0 255 0 0
0.00756 0.02849 0.39905 0.0 0.0 1.0 255 0 0
0.00724 0.02916 0.399 0.0 0.0 1.0 255 0 0
0.00471 0.02477 0.3991 0.0 0.0 1.0 255 0 0
0.01105 0.01691 0.40129 0.0 0.0 1.0 255 0 0
0.01214 0.01899 0.4012 0.0 0.0 1.0 255 0 0
0.01303 0.02161 0.39884 0.0 0.0 1.0 255 0 0
0.01039 0.01952 0.40114 0.0 0.0 1.0 255 0 0
0.00175 0.03172 0.39894 0.0 -1.0 0.0 255 0 0
0.00099 0.03193 0.39899 0.0 -1.0 0.0 255 0 0
0.00358 0.02925 0.39895 0.0 -0.0 1.0 255 0 0
0.01088 0.02447 0.39907 0.0 0.0 1.0 255 0 0
0.00031 0.0252 0.40132 1.0 0.0 1.0 255 0 0
0.01228 0.02373 0.39902 0.0 0.0 1.0 255 0 0
0.00607 0.03058 0.39913 0.0 0.0 1.0 255 0 0
0.00794 0.01809 0.40133 0.0 0.0 1.0 255 0 0
0.0036 0.03278 0.39928 0.0 0.0 1.0 255 0 0
0.00273 0.02628 0.39954 0.0 0.0 1.0 255 0 0
0.00223 0.02376 0.40125 0.0 0.0 1.0 255 0 0
0.00382 0.02794 0.39896 0.0 0.0 1.0 255 0 0
-6e-05 0.0318 0.39869 0.0 -1.0 0.0 255 0 0
-0.00301 0.03192 0.3989 1.0 1.0 0.0 255 0 0
0.00088 0.03467 0.39918 0.0 1.0 1.0 255 0 0
0.00908 0.02169 0.39889 0.0 0.0 1.0 255 0 0
0.00997 0.02212 0.39955 0.0 0.0 1.0 255 0 0
0.00356 0.03038 0.3989 1.0 0.0 1.0 255 0 0
8e-05 0.03074 0.39909 0.0 -1.0 -0.0 255 0 0
0.00292 0.02331 0.40119 0.0 0.0 1.0 255 0 0
0.0018 0.03443 0.39904 0.0 1.0 1.0 255 0 0
0.00414 0.02202 0.4012 0.0 0.0 1.0 255 0 0
0.0059 0.03129 0.3989 0.0 1.0 1.0 255 0 0
0.0053 0.01949 0.40114 0.0 0.0 1.0 255 0 0
0.00863 0.02717 0.39897 0.0 0.0 1.0 255 0 0
0.00232 0.02202 0.4012 0.0 0.0 1.0 255 0 0
0.0098 0.02135 0.39891 0.0 0.0 1.0 255 0 0
0.00516 0.03217 0.39888 0.0 0.0 1.0 255 0 0
-6e-05 0.02608 0.40126 0.0 0.0 1.0 255 0 0
0.00652 0.02205 0.39947 0.0 0.0 1.0 255 0 0
0.00195 0.02295 0.40102 0.0 0.0 1.0 255 0 0
0.01457 0.02082 0.39956 0.0 -0.0 -1.0 255 0 0
0.00742 0.02075 0.39984 0.0 1.0 1.0 255 0 0
0.00683 0.0302 0.39884 0.0 0.0 1.0 255 0 0
0.00448 0.03027 0.39866 0.0 0.0 1.0 255 0 0
0.00436 0.02889 0.3988 0.0 -0.0 1.0 255 0 0
0.00499 0.02837 0.39871 0.0 0.0 1.0 255 0 0
0.00999 0.02057 0.39935 0.0 1.0 1.0 255 0 0
-0.00019 0.03012 0.39949 0.0 1.0 1.0 255 0 0
0.00419 0.02716 0.39892 0.0 -0.0 1.0 255 0 0
0.00264 0.03426 0.39879 0.0 1.0 1.0 255 0 0
0.00219 0.02699 0.39953 0.0 0.0 1.0 255 0 0
-0.00021 0.0294 0.39977 0.0 0.0 1.0 255 0 0
0.00963 0.02643 0.39881 0.0 0.0 1.0 255 0 0
0.00104 0.03408 0.39967 0.0 1.0 1.0 255 0 0
-0.00233 0.03093 0.39936 1.0 1.0 1.0 255 0 0
-0.00127 0.03599 0.39938 1.0 1.0 0.0 255 0 0
-0.00295 0.03135 0.39938 1.0 1.0 0.0 255 0 0
-0.00105 0.0308 0.39952 0.0 1.0 1.0 255 0 0
0.00558 0.02468 0.39887 0.0 0.0 1.0 255 0 0
0.0106 0.02553 0.39878 0.0 0.0 1.0 255 0 0
0.01072 0.02168 0.3986 0.0 -0.0 -1.0 255 0 0
0.00646 0.02504 0.39969 0.0 0.0 1.0 255 0 0
0.00483 0.0266 0.39877 0.0 0.0 1.0 255 0 0
0.00364 0.02279 0.40111 0.0 0.0 1.0 255 0 0
0.012 0.02131 0.39876 0.0 -0.0 -1.0 255 0 0
-0.0039 0.03414 0.39968 0.0 0.0 -1.0 255 0 0
0.0085 0.02812 0.3987 0.0 0.0 1.0 255 0 0
0.00314 0.02164 0.40102 0.0 0.0 1.0 255 0 0
0.00632 0.02672 0.39962 0.0 -0.0 1.0 255 0 0
0.01552 0.02345 0.39866 0.0 -1.0 -1.0 255 0 0
0.01369 0.0234 0.39872 0.0 0.0 1.0 255 0 0
0.01041 0.01802 0.40106 0.0 0.0 1.0 255 0 0
0.00988 0.0185 0.40089 0.0 0.0 1.0 255 0 0
0.00866 0.01857 0.40095 0.0 1.0 1.0 255 0 0
0.01135 0.02505 0.39869 0.0 0.0 1.0 255 0 0
0.00609 0.02387 0.39887 0.0 0.0 1.0 255 0 0
-0.00035 0.02675 0.40117 0.0 0.0 1.0 255 0 0
0.00851 0.02232 0.39869 0.0 0.0 1.0 255 0 0
0.01261 0.02167 0.39959 0.0 -0.0 -1.0 255 0 0
0.00626 0.02083 0.40103 0.0 0.0 1.0 255 0 0
0.01698 0.02383 0.39867 0.0 -0.0 -1.0 255 0 0
0.00582 0.02856 0.39854 0.0 0.0 1.0 255 0 0
0.0038 0.03136 0.39858 0.0 1.0 1.0 255 0 0
0.00626 0.0277 0.39963 0.0 -0.0 1.0 255 0 0
0.00505 0.02946 0.39864 0.0 0.0 1.0 255 0 0
0.00685 0.02414 0.39855 0.0 0.0 1.0 255 0 0
0.01476 0.02376 0.39843 0.0 -1.0 -1.0 255 0 0
0.00553 0.02692 0.39857 0.0 -0.0 1.0 255 0 0
-0.00013 0.02762 0.40097 0.0 0.0 1.0 255 0 0
0.00066 0.02701 0.40095 0.0 0.0 1.0 255 0 0
0.00504 0.02188 0.40101 0.0 0.0 1.0 255 0 0
0.00379 0.03396 0.39853 0.0 1.0 1.0 255 0 0
0.01243 0.02274 0.39847 0.0 0.0 1.0 255 0 0
0.00215 0.03166 0.39724 0.0 -1.0 0.0 255 0 0
-0.0 0.0355 0.39847 0.0 1.0 0.0 255 0 0
-0.00226 0.03234 0.39886 1.0 1.0 -0.0 255 0 0
0.00713 0.02152 0.39952 0.0 0.0 1.0 255 0 0
0.00296 0.03173 0.3987 0.0 -1.0 1.0 255 0 0
0.00342 0.03187 0.39665 0.0 -1.0 0.0 255 0 0
0.00723 0.02044 0.40101 0.0 0.0 1.0 255 0 0
0.0133 0.02401 0.39851 0.0 1.0 1.0 255 0 0
0.01337 0.02256 0.39863 0.0 0.0 1.0 255 0 0
0.01512 0.02183 0.39959 0.0 -1.0 -1.0 255 0 0
0.01419 0.01892 0.40069 0.0 0.0 1.0 255 0 0
-0.00412 0.03312 0.39814 0.0 1.0 -0.0 255 0 0
0.0135 0.01845 0.40097 0.0 0.0 1.0 255 0 0
0.00086 0.0288 0.39959 0.0 -0.0 -1.0 255 0 0
0.00891 0.02001 0.40094 0.0 1.0 1.0 255 0 0
-0.00135 0.02778 0.40078 0.0 0.0 1.0 255 0 0
0.00604 0.02571 0.39849 0.0 0.0 1.0 255 0 0
0.00169 0.02774 0.39954 0.0 0.0 1.0 255 0 0
0.01007 0.02206 0.39852 0.0 0.0 1.0 255 0 0
0.01353 0.02053 0.39946 0.0 -0.0 -1.0 255 0 0
0.00863 0.02878 0.39843 0.0 0.0 1.0 255 0 0
0.01106 0.02141 0.39972 0.0 0.0 1.0 255 0 0
0.01153 0.02209 0.39844 0.0 -0.0 -1.0 255 0 0
0.01572 0.02413 0.39835 0.0 -0.0 -1.0 255 0 0
0.00771 0.0303 0.39841 0.0 0.0 1.0 255 0 0
0.00819 0.02954 0.39842 0.0 0.0 1.0 255 0 0
0.0046 0.03364 0.3984 0.0 0.0 1.0 255 0 0
0.00332 0.024 0.40089 0.0 0.0 1.0 255 0 0
0.00478 0.03062 0.39969 0.0 0.0 1.0 255 0 0
0.01132 0.02584 0.39835 0.0 0.0 1.0 255 0 0
0.00578 0.02154 0.40094 0.0 0.0 1.0 255 0 0
0.0066 0.02771 0.39837 0.0 0.0 1.0 255 0 0
-0.00098 0.03107 0.39832 0.0 1.0 -1.0 255 0 0
-0.00482 0.03356 0.39864 1.0 1.0 -0.0 255 0 0
0.00248 0.02474 0.40096 0.0 0.0 1.0 255 0 0
0.00783 0.02314 0.39968 0.0 0.0 1.0 255 0 0
0.00717 0.03093 0.39843 0.0 0.0 1.0 255 0 0
-7e-05 0.02844 0.4009 0.0 0.0 1.0 255 0 0
0.01265 0.02451 0.39845 0.0 0.0 1.0 255 0 0
0.00691 0.027 0.39835 0.0 -0.0 1.0 255 0 0
0.00821 0.02358 0.39834 0.0 0.0 1.0 255 0 0
0.00643 0.02635 0.39841 0.0 -0.0 1.0 255 0 0
0.00924 0.02813 0.39838 0.0 0.0 1.0 255 0 0
0.00614 0.0258 0.39973 0.0 0.0 1.0 255 0 0
0.0065 0.0249 0.39848 0.0 0.0 1.0 255 0 0
0.0098 0.0228 0.3983 0.0 0.0 1.0 255 0 0
0.00678 0.02565 0.39834 0.0 0.0 1.0 255 0 0
0.00078 0.0316 0.39815 0.0 -1.0 0.0 255 0 0
0.0043 0.03193 0.39723 0.0 -1.0 -0.0 255 0 0
0.0166 0.02311 0.39851 0.0 -1.0 -1.0 255 0 0
0.01214 0.02114 0.39981 0.0 -0.0 -1.0 255 0 0
0.00485 0.03102 0.39823 0.0 0.0 1.0 255 0 0
0.01717 0.02452 0.39837 0.0 -0.0 -1.0 255 0 0
0.00686 0.02965 0.39779 0.0 0.0 1.0 255 0 0
0.01514 0.02296 0.39817 0.0 -1.0 -1.0 255 0 0
0.01416 0.02263 0.39832 0.0 -1.0 -1.0 255 0 0
0.00331 0.03206 0.39975 0.0 0.0 1.0 255 0 0
-0.00091 0.02712 0.40074 0.0 0.0 1.0 255 0 0
0.01207 0.02504 0.39841 0.0 1.0 1.0 255 0 0
0.01141 0.02312 0.39829 0.0 -0.0 -1.0 255 0 0
0.01258 0.01964 0.40067 0.0 1.0 1.0 255 0 0
0.00547 0.02895 0.39979 0.0 0.0 1.0 255 0 0
0.00996 0.0202 0.40073 0.0 1.0 1.0 255 0 0
0.00988 0.02762 0.39825 0.0 0.0 1.0 255 0 0
0.01061 0.02279 0.39829 0.0 0.0 1.0 255 0 0
0.01221 0.01762 0.40086 0.0 0.0 1.0 255 0 0
0.00723 0.01885 0.40103 0.0 0.0 1.0 255 0 0
0.01139 0.01821 0.40086 0.0 0.0 1.0 255 0 0
0.00225 0.02601 0.40081 0.0 0.0 1.0 255 0 0
0.00138 0.02734 0.40081 0.0 0.0 1.0 255 0 0
0.0076 0.0252 0.39825 0.0 0.0 1.0 255 0 0
0.00821 0.02564 0.39823 0.0 0.0 1.0 255 0 0
0.00796 0.0267 0.39817 0.0 0.0 1.0 255 0 0
0.00914 0.02188 0.39983 0.0 0.0 1.0 255 0 0
0.01174 0.02404 0.3981 0.0 0.0 1.0 255 0 0
0.00057 0.02893 0.40084 0.0 -0.0 -1.0 255 0 0
-0.00143 0.03016 0.39752 1.0 0.0 -1.0 255 0 0
-0.00505 0.03323 0.39795 1.0 1.0 -0.0 255 0 0
0.00847 0.02487 0.39819 0.0 0.0 1.0 255 0 0
0.00896 0.02427 0.39819 0.0 0.0 1.0 255 0 0
0.00564 0.02203 0.39986 0.0 0.0 1.0 255 0 0
0.01029 0.02407 0.39816 0.0 0.0 1.0 255 0 0
0.0106 0.02003 0.39968 0.0 1.0 1.0 255 0 0
0.00091 0.02811 0.40085 0.0 0.0 1.0 255 0 0
0.00966 0.02471 0.39815 0.0 -0.0 -1.0 255 0 0
-0.00159 0.02968 0.39982 0.0 0.0 1.0 255 0 0
-0.0021 0.03027 0.39961 1.0 1.0 1.0 255 0 0
-0.00161 0.03141 0.39948 1.0 1.0 0.0 255 0 0
-0.0002 0.03498 0.39972 0.0 1.0 1.0 255 0 0
0.01665 0.02227 0.39946 0.0 -1.0 -1.0 255 0 0
0.01083 0.02673 0.3982 0.0 0.0 1.0 255 0 0
0.00961 0.02373 0.39815 0.0 0.0 1.0 255 0 0
0.00043 0.02991 0.40076 0.0 0.0 1.0 255 0 0
0.00664 0.03222 0.39818 1.0 0.0 1.0 255 0 0
0.00131 0.03528 0.39758 0.0 1.0 0.0 255 0 0
0.00013 0.03061 0.39817 0.0 1.0 -1.0 255 0 0
-0.00255 0.03264 0.39821 0.0 1.0 0.0 255 0 0
0.00012 0.0296 0.3972 1.0 -1.0 0.0 255 0 0
-0.00348 0.03257 0.39779 0.0 1.0 -0.0 255 0 0
0.0162 0.02414 0.39771 0.0 -0.0 -1.0 255 0 0
0.00553 0.02758 0.39986 0.0 0.0 1.0 255 0 0
0.00209 0.02681 0.40076 0.0 0.0 1.0 255 0 0
-0.00141 0.03234 0.39827 0.0 1.0 0.0 255 0 0
0.0094 0.02553 0.39809 0.0 0.0 1.0 255 0 0
0.00616 0.03004 0.39801 0.0 1.0 1.0 255 0 0
0.00084 0.02754 0.39986 0.0 0.0 1.0 255 0 0
0.0064 0.02926 0.39821 0.0 0.0 1.0 255 0 0
0.00557 0.03329 0.39818 0.0 0.0 1.0 255 0 0
0.01493 0.02441 0.39814 0.0 -0.0 -1.0 255 0 0
0.00664 0.02409 0.39983 0.0 0.0 1.0 255 0 0
0.01023 0.02818 0.39793 0.0 0.0 1.0 255 0 0
0.00821 0.03084 0.39804 0.0 0.0 1.0 255 0 0
0.00894 0.02989 0.39798 0.0 0.0 1.0 255 0 0
0.0091 0.02623 0.398 0.0 0.0 1.0 255 0 0
0.01772 0.02542 0.39787 0.0 -0.0 -1.0 255 0 0
0.00428 0.03441 0.39802 0.0 1.0 1.0 255 0 0
0.00329 0.03462 0.39826 0.0 1.0 1.0 255 0 0
0.00849 0.02251 0.39972 0.0 0.0 1.0 255 0 0
0.01665 0.0253 0.39796 0.0 -0.0 -1.0 255 0 0
0.01592 0.02481 0.39809 0.0 -0.0 -1.0 255 0 0
0.01378 0.02484 0.398 0.0 0.0 1.0 255 0 0
-0.00096 0.02923 0.40077 0.0 -0.0 -1.0 255 0 0
0.01299 0.02516 0.39805 0.0 0.0 1.0 255 0 0
0.00298 0.02466 0.3999 0.0 0.0 1.0 255 0 0
0.01475 0.02517 0.39784 0.0 -0.0 -1.0 255 0 0
0.00942 0.02927 0.39794 0.0 0.0 1.0 255 0 0
0.00785 0.03163 0.39793 0.0 0.0 1.0 255 0 0
0.00182 0.02395 0.40068 0.0 0.0 1.0 255 0 0
0.01176 0.01962 0.40087 0.0 1.0 1.0 255 0 0
-0.00102 0.03618 0.39777 0.0 1.0 -0.0 255 0 0
0.00441 0.03177 0.39801 0.0 -1.0 -0.0 255 0 0
0.00385 0.02124 0.40091 0.0 0.0 1.0 255 0 0
0.00383 0.02206 0.40052 0.0 0.0 1.0 255 0 0
0.00524 0.03431 0.39774 0.0 1.0 1.0 255 0 0
0.00875 0.02691 0.39793 0.0 0.0 1.0 255 0 0
0.01066 0.02534 0.39784 0.0 0.0 1.0 255 0 0
0.00787 0.02781 0.39791 0.0 0.0 1.0 255 0 0
0.0085 0.02804 0.39751 0.0 0.0 1.0 255 0 0
0.01062 0.01875 0.40064 0.0 0.0 1.0 255 0 0
0.01162 0.0266 0.39792 0.0 0.0 1.0 255 0 0
0.01588 0.02557 0.39779 0.0 -0.0 -1.0 255 0 0
0.01126 0.02748 0.39778 0.0 0.0 1.0 255 0 0
-0.00575 0.03351 0.39748 1.0 1.0 -0.0 255 0 0
-0.00336 0.03266 0.39984 1.0 0.0 -1.0 255 0 0
0.01134 0.02473 0.39781 0.0 0.0 1.0 255 0 0
0.01306 0.02367 0.39772 0.0 1.0 1.0 255 0 0
0.00172 0.02918 0.40072 0.0 0.0 1.0 255 0 0
0.006 0.03157 0.39746 0.0 1.0 1.0 255 0 0
0.00766 0.0286 0.39776 0.0 0.0 1.0 255 0 0
0.01272 0.026 0.3978 0.0 0.0 1.0 255 0 0
0.00661 0.03303 0.39789 0.0 0.0 1.0 255 0 0
0.00942 0.01995 0.39991 0.0 1.0 1.0 255 0 0
0.0051 0.02274 0.39977 0.0 0.0 1.0 255 0 0
0.01417 0.02009 0.39977 0.0 -0.0 -1.0 255 0 0
0.01616 0.02175 0.39983 0.0 -1.0 -1.0 255 0 0
0.00261 0.0325 0.39984 0.0 0.0 1.0 255 0 0
0.00079 0.0352 0.39813 0.0 1.0 0.0 255 0 0
0.00069 0.03067 0.39736 1.0 -1.0 0.0 255 0 0
-0.0002 0.03551 0.39762 0.0 1.0 -0.0 255 0 0
-0.00019 0.02974 0.39819 0.0 1.0 -0.0 255 0 0
0.00181 0.02624 0.39989 0.0 0.0 1.0 255 0 0
-0.00188 0.03201 0.39724 1.0 1.0 -1.0 255 0 0
0.01521 0.02358 0.39777 0.0 -0.0 -1.0 255 0 0
0.01206 0.02455 0.39757 0.0 1.0 1.0 255 0 0
0.00627 0.03086 0.39759 0.0 0.0 1.0 255 0 0
0.01411 0.02581 0.39764 0.0 -0.0 -1.0 255 0 0
0.01216 0.02709 0.39762 0.0 0.0 1.0 255 0 0
0.00956 0.03018 0.39766 0.0 0.0 1.0 255 0 0
0.00906 0.03104 0.39762 0.0 0.0 1.0 255 0 0
0.01505 0.02595 0.3976 0.0 -0.0 -1.0 255 0 0
0.01458 0.02403 0.39739 0.0 -0.0 -1.0 255 0 0
0.00699 0.02326 0.39995 0.0 0.0 1.0 255 0 0
0.01382 0.02113 0.39991 0.0 -0.0 -1.0 255 0 0
0.00851 0.0317 0.39761 0.0 0.0 1.0 255 0 0
0.01349 0.02635 0.39754 0.0 0.0 1.0 255 0 0
0.01036 0.02958 0.39752 0.0 0.0 1.0 255 0 0
0.00549 0.02666 0.39989 0.0 -0.0 1.0 255 0 0
0.01112 0.02859 0.3975 0.0 0.0 1.0 255 0 0
0.00365 0.03128 0.39996 0.0 0.0 1.0 255 0 0
0.01581 0.02641 0.39747 0.0 -0.0 -1.0 255 0 0
0.00254 0.03549 0.39757 0.0 -1.0 -0.0 255 0 0
-0.00195 0.03551 0.39715 0.0 1.0 -1.0 255 0 0
0.00638 0.03215 0.39701 0.0 -0.0 -1.0 255 0 0
-0.00218 0.0287 0.39671 1.0 0.0 -1.0 255 0 0
0.00357 0.03545 0.39748 0.0 1.0 1.0 255 0 0
0.0043 0.03533 0.3974 0.0 1.0 1.0 255 0 0
-0.00311 0.0335 0.39997 0.0 0.0 -1.0 255 0 0
0.00813 0.02088 0.40059 0.0 0.0 1.0 255 0 0
0.00917 0.02741 0.3975 0.0 0.0 1.0 255 0 0
0.00086 0.03083 0.40069 0.0 0.0 -1.0 255 0 0
-0.00143 0.02926 0.39761 0.0 1.0 -1.0 255 0 0
0.00583 0.02467 0.39999 0.0 0.0 1.0 255 0 0
0.003 0.02558 0.40072 0.0 0.0 1.0 255 0 0
0.01004 0.02614 0.39766 0.0 0.0 1.0 255 0 0
-0.00137 0.03057 0.40065 0.0 0.0 -1.0 255 0 0
0.00742 0.02254 0.40007 0.0 0.0 1.0 255 0 0
0.00803 0.03265 0.39746 0.0 0.0 1.0 255 0 0
0.01209 0.02792 0.39744 0.0 0.0 1.0 255 0 0
0.00697 0.03042 0.3974 0.0 0.0 1.0 255 0 0
0.00424 0.02379 0.40071 0.0 0.0 1.0 255 0 0
0.01571 0.02493 0.39721 0.0 -0.0 -1.0 255 0 0
-0.0026 0.03595 0.39736 0.0 0.0 -1.0 255 0 0
-0.00042 0.0311 0.40068 0.0 0.0 -1.0 255 0 0
0.00617 0.03428 0.39744 0.0 0.0 1.0 255 0 0
0.01449 0.01953 0.40034 0.0 -0.0 -1.0 255 0 0
0.01286 0.01952 0.39997 0.0 1.0 1.0 255 0 0
0.01476 0.02708 0.39727 0.0 -0.0 -1.0 255 0 0
-0.00086 0.03541 0.39982 0.0 1.0 1.0 255 0 0
0.01211 0.0202 0.40041 0.0 1.0 1.0 255 0 0
-0.00199 0.02978 0.40064 1.0 0.0 1.0 255 0 0
0.01128 0.02949 0.39725 0.0 0.0 1.0 255 0 0
0.01348 0.02715 0.39736 0.0 0.0 1.0 255 0 0
0.01651 0.02687 0.39735 0.0 -0.0 -1.0 255 0 0
0.01082 0.02009 0.40068 0.0 1.0 1.0 255 0 0
0.00186 0.03135 0.39655 1.0 -1.0 0.0 255 0 0
0.00157 0.03168 0.39794 0.0 -1.0 0.0 255 0 0
0.00171 0.03543 0.39693 0.0 -1.0 -0.0 255 0 0
-0.00164 0.02856 0.39745 0.0 1.0 -1.0 255 0 0
-0.00232 0.03281 0.39745 0.0 1.0 0.0 255 0 0
-0.00306 0.03253 0.39708 1.0 1.0 0.0 255 0 0
-0.00391 0.03256 0.39692 1.0 1.0 -0.0 255 0 0
0.00536 0.03196 0.39719 0.0 -1.0 -0.0 255 0 0
-0.0006 0.02884 0.39755 0.0 -1.0 1.0 255 0 0
0.00817 0.02973 0.39716 0.0 0.0 1.0 255 0 0
0.00579 0.03494 0.39719 0.0 1.0 1.0 255 0 0
0.00694 0.03435 0.39715 0.0 0.0 1.0 255 0 0
0.00855 0.02016 0.39991 0.0 1.0 1.0 255 0 0
0.00133 0.02697 0.39985 0.0 0.0 1.0 255 0 0
0.0012 0.02516 0.40048 0.0 0.0 1.0 255 0 0
0.01201 0.01962 0.3999 0.0 1.0 1.0 255 0 0
0.01716 0.02651 0.39704 0.0 -0.0 -1.0 255 0 0
0.00682 0.01948 0.40069 0.0 0.0 1.0 255 0 0
0.01135 0.02594 0.39719 0.0 0.0 1.0 255 0 0
-0.00143 0.03145 0.39772 1.0 1.0 -0.0 255 0 0
0.00024 0.02801 0.39994 0.0 0.0 1.0 255 0 0
-0.00096 0.03173 0.40061 0.0 0.0 -1.0 255 0 0
0.0129 0.02836 0.39719 0.0 0.0 1.0 255 0 0
0.012 0.0289 0.39724 0.0 0.0 1.0 255 0 0
0.00169 0.03025 0.40064 0.0 -0.0 1.0 255 0 0
-0.00054 0.03247 0.40061 0.0 -0.0 1.0 255 0 0
0.00502 0.02831 0.39999 0.0 0.0 1.0 255 0 0
0.00986 0.03142 0.3972 0.0 0.0 1.0 255 0 0
0.00752 0.03364 0.39724 0.0 0.0 1.0 255 0 0
-0.00609 0.03438 0.39713 1.0 0.0 0.0 255 0 0
0.00702 0.03148 0.3971 0.0 0.0 1.0 255 0 0
0.00875 0.02922 0.39705 0.0 0.0 1.0 255 0 0
0.00219 0.02853 0.40064 0.0 -0.0 1.0 255 0 0
0.0076 0.03082 0.39704 0.0 0.0 1.0 255 0 0
0.01576 0.02569 0.397 0.0 -0.0 -1.0 255 0 0
0.01049 0.0266 0.39722 0.0 0.0 1.0 255 0 0
0.01769 0.02637 0.39754 0.0 -0.0 -1.0 255 0 0
0.00908 0.03237 0.39715 0.0 0.0 1.0 255 0 0
0.0045 0.02946 0.40001 0.0 -0.0 1.0 255 0 0
0.01069 0.03065 0.39714 0.0 0.0 1.0 255 0 0
0.0134 0.02437 0.39727 0.0 1.0 1.0 255 0 0
0.01446 0.02801 0.39707 0.0 0.0 1.0 255 0 0
0.00101 0.03339 0.40009 0.0 0.0 1.0 255 0 0
0.01728 0.02759 0.39689 0.0 -0.0 -1.0 255 0 0
-0.0027 0.03177 0.39655 1.0 0.0 -0.0 255 0 0
-3e-05 0.03193 0.40063 0.0 -0.0 1.0 255 0 0
0.00596 0.02226 0.40065 0.0 0.0 1.0 255 0 0
0.0121 0.02561 0.39705 0.0 0.0 1.0 255 0 0
0.01445 0.02476 0.39709 0.0 -0.0 -1.0 255 0 0
0.01263 0.02511 0.39709 0.0 0.0 1.0 255 0 0
0.01233 0.0296 0.39698 0.0 0.0 1.0 255 0 0
0.01137 0.03029 0.39706 0.0 0.0 1.0 255 0 0
0.01368 0.02837 0.39705 0.0 0.0 1.0 255 0 0
0.00487 0.0233 0.40065 0.0 0.0 1.0 255 0 0
0.0087 0.03354 0.3969 0.0 0.0 1.0 255 0 0
-0.00088 0.03341 0.40054 0.0 0.0 1.0 255 0 0
0.01314 0.02912 0.39697 0.0 0.0 1.0 255 0 0
0.00398 0.03036 0.40004 0.0 0.0 1.0 255 0 0
0.00807 0.03147 0.39677 0.0 0.0 1.0 255 0 0
0.00828 0.03047 0.3969 0.0 0.0 1.0 255 0 0
0.00496 0.0253 0.40019 0.0 0.0 1.0 255 0 0
0.00961 0.02846 0.39693 0.0 0.0 1.0 255 0 0
0.01613 0.02654 0.39678 0.0 -0.0 -1.0 255 0 0
0.0154 0.02815 0.39694 0.0 -0.0 -1.0 255 0 0
0.00239 0.02945 0.40056 0.0 -0.0 1.0 255 0 0
-0.00148 0.02949 0.39285 0.0 0.0 1.0 255 0 0
0.00979 0.02777 0.39708 0.0 0.0 1.0 255 0 0
-0.00018 0.03017 0.393 0.0 0.0 -1.0 255 0 0
0.01633 0.02798 0.39698 0.0 0.0 1.0 255 0 0
-9e-05 0.02734 0.40028 0.0 0.0 1.0 255 0 0
-0.00073 0.03075 0.3932 0.0 0.0 -1.0 255 0 0
-0.0005 0.02867 0.4 0.0 0.0 1.0 255 0 0
0.01008 0.03228 0.39687 0.0 0.0 1.0 255 0 0
0.01177 0.02647 0.39683 0.0 0.0 1.0 255 0 0
0.014 0.02906 0.39683 0.0 0.0 1.0 255 0 0
0.00967 0.03299 0.39679 0.0 0.0 1.0 255 0 0
0.01385 0.02519 0.39691 0.0 0.0 1.0 255 0 0
0.0011 0.03058 0.39633 1.0 -1.0 0.0 255 0 0
0.00469 0.03203 0.39613 0.0 -1.0 -0.0 255 0 0
0.00052 0.03525 0.39726 0.0 -1.0 0.0 255 0 0
0.00247 0.03182 0.39797 0.0 -1.0 0.0 255 0 0
0.00054 0.03005 0.39679 1.0 -1.0 0.0 255 0 0
-0.00034 0.02878 0.39632 1.0 -1.0 0.0 255 0 0
-0.00141 0.02801 0.39681 0.0 1.0 -1.0 255 0 0
-0.00217 0.02913 0.39315 0.0 1.0 1.0 255 0 0
-0.00075 0.02967 0.39292 0.0 -0.0 -1.0 255 0 0
0.00675 0.03515 0.3967 0.0 1.0 0.0 255 0 0
-0.00347 0.03201 0.39647 1.0 0.0 -1.0 255 0 0
0.01369 0.01917 0.40017 0.0 -1.0 -1.0 255 0 0
0.0074 0.02151 0.40047 0.0 0.0 1.0 255 0 0
-0.0014 0.03045 0.39329 0.0 -0.0 1.0 255 0 0
0.00035 0.03384 0.40015 0.0 0.0 1.0 255 0 0
-0.00108 0.02892 0.39341 0.0 -1.0 -1.0 255 0 0
0.00094 0.03164 0.40059 0.0 0.0 1.0 255 0 0
0.01223 0.03053 0.39679 0.0 0.0 1.0 255 0 0
-0.00039 0.03157 0.39361 0.0 -0.0 1.0 255 0 0
0.01487 0.02575 0.39681 0.0 -0.0 -1.0 255 0 0
-0.00165 0.03475 0.39657 0.0 1.0 -1.0 255 0 0
-0.00259 0.03512 0.39688 0.0 0.0 -1.0 255 0 0
0.00153 0.03119 0.40055 0.0 0.0 1.0 255 0 0
0.00639 0.03525 0.39604 1.0 1.0 0.0 255 0 0
0.00924 0.0304 0.39666 0.0 0.0 1.0 255 0 0
0.00987 0.02938 0.39665 0.0 0.0 1.0 255 0 0
0.01037 0.02876 0.39662 0.0 0.0 1.0 255 0 0
0.00461 0.02733 0.40014 0.0 -0.0 1.0 255 0 0
0.00275 0.03127 0.40023 0.0 0.0 1.0 255 0 0
-0.00278 0.02887 0.39361 0.0 1.0 1.0 255 0 0
-0.0004 0.02925 0.39359 1.0 -1.0 -1.0 255 0 0
0.0151 0.02908 0.3967 0.0 0.0 1.0 255 0 0
0.01094 0.02766 0.39669 0.0 0.0 1.0 255 0 0
0.00189 0.02467 0.40035 0.0 0.0 1.0 255 0 0
0.01181 0.0188 0.40049 0.0 1.0 1.0 255 0 0
0.01367 0.01996 0.40042 0.0 0.0 1.0 255 0 0
0.01295 0.02996 0.39678 0.0 0.0 1.0 255 0 0
-0.0026 0.032 0.40023 1.0 0.0 -1.0 255 0 0
0.00448 0.02155 0.40051 0.0 0.0 1.0 255 0 0
0.01261 0.02619 0.39675 0.0 0.0 1.0 255 0 0
0.00958 0.01926 0.40041 0.0 1.0 1.0 255 0 0
0.01082 0.03243 0.39663 0.0 0.0 1.0 255 0 0
0.00547 0.03544 0.39659 0.0 1.0 0.0 255 0 0
0.00848 0.01924 0.40058 0.0 0.0 1.0 255 0 0
0.00053 0.0262 0.40039 0.0 0.0 1.0 255 0 0
0.00594 0.02126 0.40007 0.0 0.0 1.0 255 0 0
0.0004 0.0327 0.4005 0.0 0.0 1.0 255 0 0
0.00775 0.03264 0.39664 0.0 0.0 1.0 255 0 0
-0.00511 0.03358 0.39677 1.0 1.0 0.0 255 0 0
-0.00281 0.02961 0.39373 1.0 0.0 1.0 255 0 0
0.00423 0.02861 0.40018 0.0 0.0 1.0 255 0 0
0.01373 0.02611 0.39657 0.0 -0.0 -1.0 255 0 0
0.00855 0.02138 0.40019 0.0 0.0 1.0 255 0 0
-0.00283 0.02819 0.39441 0.0 1.0 0.0 255 0 0
0.00053 0.03138 0.39345 1.0 0.0 -1.0 255 0 0
0.01464 0.02975 0.39657 0.0 0.0 1.0 255 0 0
-0.00168 0.02856 0.39371 0.0 -1.0 -1.0 255 0 0
0.01189 0.03131 0.39666 0.0 0.0 1.0 255 0 0
0.01185 0.02726 0.3966 0.0 0.0 1.0 255 0 0
0.01358 0.03041 0.39658 0.0 0.0 1.0 255 0 0
0.0129 0.02028 0.4002 0.0 -1.0 -1.0 255 0 0
-0.00104 0.03161 0.39395 0.0 -0.0 1.0 255 0 0
3e-05 0.03218 0.39393 0.0 0.0 -1.0 255 0 0
0.01594 0.02938 0.39631 0.0 -0.0 -1.0 255 0 0
-0.00342 0.03545 0.39652 0.0 0.0 -1.0 255 0 0
0.0158 0.02727 0.39653 0.0 -0.0 -1.0 255 0 0
0.01134 0.02835 0.39647 0.0 0.0 1.0 255 0 0
0.00802 0.03343 0.39639 0.0 -0.0 -1.0 255 0 0
-0.00198 0.03053 0.39677 1.0 0.0 -1.0 255 0 0
0.00381 0.02959 0.40022 0.0 0.0 1.0 255 0 0
0.01179 0.03222 0.39647 0.0 0.0 1.0 255 0 0
-0.00197 0.03092 0.39405 0.0 -0.0 1.0 255 0 0
-0.00166 0.03447 0.40052 0.0 0.0 1.0 255 0 0
0.01272 0.02718 0.39648 0.0 0.0 1.0 255 0 0
0.01129 0.01939 0.40011 0.0 1.0 1.0 255 0 0
-0.00081 0.03479 0.40024 0.0 0.0 1.0 255 0 0
0.01363 0.02714 0.39641 0.0 0.0 1.0 255 0 0
0.00546 0.03228 0.39584 0.0 -1.0 -0.0 255 0 0
0.00316 0.03172 0.39559 0.0 -1.0 -0.0 255 0 0
0.0005 0.02965 0.39555 1.0 -1.0 -0.0 255 0 0
0.00623 0.0327 0.39605 1.0 -1.0 -0.0 255 0 0
-0.00158 0.02788 0.39583 0.0 -1.0 0.0 255 0 0
0.00696 0.03286 0.39642 0.0 -1.0 -1.0 255 0 0
0.00342 0.0269 0.40046 0.0 0.0 1.0 255 0 0
0.00868 0.03451 0.39654 0.0 1.0 1.0 255 0 0
-0.00108 0.0323 0.39441 0.0 -1.0 1.0 255 0 0
0.00446 0.02457 0.40048 0.0 0.0 1.0 255 0 0
0.01084 0.02065 0.40022 0.0 1.0 1.0 255 0 0
0.00365 0.02599 0.40051 0.0 0.0 1.0 255 0 0
0.00424 0.0228 0.4001 0.0 0.0 1.0 255 0 0
0.00682 0.02198 0.40047 0.0 0.0 1.0 255 0 0
0.01475 0.03058 0.39617 0.0 0.0 1.0 255 0 0
-0.00457 0.03268 0.39659 1.0 1.0 0.0 255 0 0
0.01665 0.02852 0.3965 0.0 -0.0 -1.0 255 0 0
0.01518 0.02778 0.39637 0.0 -0.0 -1.0 255 0 0
0.01467 0.02042 0.40022 0.0 -0.0 -1.0 255 0 0
0.01454 0.02671 0.39653 0.0 -0.0 -1.0 255 0 0
0.01406 0.02781 0.39629 0.0 0.0 1.0 255 0 0
-0.00273 0.03082 0.39435 1.0 -0.0 1.0 255 0 0
0.00927 0.03121 0.39654 0.0 0.0 1.0 255 0 0
-0.00187 0.02813 0.39453 0.0 1.0 0.0 255 0 0
-0.00101 0.02858 0.39413 0.0 -1.0 -0.0 255 0 0
0.0001 0.02941 0.39419 1.0 -1.0 -0.0 255 0 0
0.00085 0.0307 0.39395 1.0 -0.0 -1.0 255 0 0
0.00278 0.028 0.40053 0.0 -0.0 1.0 255 0 0
0.00995 0.03078 0.39641 0.0 0.0 1.0 255 0 0
0.00935 0.03398 0.39618 0.0 0.0 1.0 255 0 0
0.00956 0.03244 0.39623 0.0 0.0 1.0 255 0 0
0.00859 0.03249 0.39643 0.0 0.0 1.0 255 0 0
0.01381 0.03143 0.39625 0.0 0.0 1.0 255 0 0
-0.00482 0.03328 0.39607 1.0 0.0 1.0 255 0 0
-0.00502 0.03422 0.39592 0.0 -0.0 1.0 255 0 0
-0.00295 0.03106 0.39608 1.0 1.0 -0.0 255 0 0
0.0106 0.03037 0.39634 0.0 0.0 1.0 255 0 0
0.01118 0.02948 0.39634 0.0 0.0 1.0 255 0 0
0.00248 0.03049 0.40047 0.0 0.0 1.0 255 0 0
0.01282 0.0286 0.39625 0.0 0.0 1.0 255 0 0
0.00031 0.03285 0.39442 0.0 -1.0 1.0 255 0 0
-0.00132 0.03277 0.40054 0.0 0.0 -1.0 255 0 0
0.01372 0.0285 0.3962 0.0 -0.0 -1.0 255 0 0
-0.00345 0.02854 0.39461 1.0 1.0 0.0 255 0 0
0.00107 0.03184 0.39396 0.0 -0.0 -1.0 255 0 0
0.01183 0.02901 0.39628 0.0 0.0 1.0 255 0 0
0.00781 0.03429 0.39619 0.0 0.0 -1.0 255 0 0
-0.00352 0.02947 0.39459 1.0 0.0 0.0 255 0 0
0.01127 0.03327 0.39616 0.0 0.0 1.0 255 0 0
-0.00198 0.03193 0.3946 0.0 -0.0 1.0 255 0 0
0.01456 0.02853 0.39618 0.0 0.0 1.0 255 0 0
-0.00233 0.03439 0.39631 0.0 0.0 -1.0 255 0 0
0.00985 0.03174 0.39627 0.0 0.0 1.0 255 0 0
-0.00467 0.03514 0.39608 0.0 -0.0 1.0 255 0 0
0.00191 0.03195 0.40027 0.0 0.0 1.0 255 0 0
-0.00235 0.0313 0.4004 1.0 0.0 -1.0 255 0 0
-0.00207 0.0351 0.40048 0.0 0.0 1.0 255 0 0
0.01155 0.03028 0.39616 0.0 0.0 1.0 255 0 0
0.00279 0.02354 0.40038 0.0 0.0 1.0 255 0 0
0.00412 0.02534 0.40049 0.0 0.0 1.0 255 0 0
0.01041 0.03272 0.39604 0.0 0.0 1.0 255 0 0
0.01013 0.03364 0.39608 0.0 0.0 1.0 255 0 0
0.00897 0.02068 0.40049 0.0 1.0 1.0 255 0 0
0.01318 0.03194 0.39613 0.0 0.0 1.0 255 0 0
0.01065 0.03192 0.39606 0.0 0.0 1.0 255 0 0
0.01128 0.0312 0.39605 0.0 0.0 1.0 255 0 0
0.00318 0.03041 0.40027 0.0 -0.0 1.0 255 0 0
0.01374 0.02942 0.39605 0.0 0.0 1.0 255 0 0
0.01236 0.02981 0.39611 0.0 0.0 1.0 255 0 0
0.0122 0.03065 0.396 0.0 0.0 1.0 255 0 0
-0.00281 0.03209 0.39489 0.0 -0.0 1.0 255 0 0
0.00206 0.03136 0.39585 1.0 -1.0 0.0 255 0 0
0.00131 0.03083 0.39475 1.0 -1.0 -0.0 255 0 0
0.00679 0.03326 0.39577 1.0 -0.0 -0.0 255 0 0
-0.00017 0.03441 0.39612 0.0 -1.0 0.0 255 0 0
0.00724 0.03482 0.39612 1.0 1.0 0.0 255 0 0
0.00577 0.02038 0.40054 0.0 0.0 1.0 255 0 0
0.01407 0.03067 0.39594 0.0 -0.0 -1.0 255 0 0
-0.00182 0.02879 0.4004 0.0 0.0 1.0 255 0 0
0.01253 0.03162 0.39587 0.0 0.0 1.0 255 0 0
-0.00255 0.03039 0.40039 0.0 0.0 1.0 255 0 0
0.01314 0.03088 0.39588 0.0 0.0 1.0 255 0 0
-0.00314 0.03466 0.39632 0.0 0.0 -1.0 255 0 0
-0.00395 0.03495 0.39609 0.0 0.0 -1.0 255 0 0
0.01137 0.03251 0.39594 0.0 0.0 1.0 255 0 0
-0.00411 0.03411 0.396 0.0 -0.0 1.0 255 0 0
-0.00263 0.02978 0.39605 1.0 0.0 -1.0 255 0 0
-0.00267 0.02897 0.39605 1.0 0.0 -1.0 255 0 0
0.00444 0.02612 0.40024 0.0 0.0 1.0 255 0 0
0.01299 0.01877 0.4004 0.0 1.0 1.0 255 0 0
-0.00339 0.03396 0.39605 0.0 0.0 -1.0 255 0 0
-0.00384 0.03329 0.39567 0.0 -0.0 1.0 255 0 0
-0.00401 0.03068 0.39489 1.0 -0.0 1.0 255 0 0
-0.00369 0.03202 0.395 1.0 -0.0 1.0 255 0 0
-0.00139 0.03316 0.3951 0.0 -1.0 1.0 255 0 0
0.00677 0.02049 0.40019 0.0 0.0 1.0 255 0 0
0.00775 0.01995 0.40025 0.0 0.0 1.0 255 0 0
0.00529 0.02106 0.40041 0.0 0.0 1.0 255 0 0
-0.00066 0.02793 0.40026 0.0 0.0 1.0 255 0 0
0.00348 0.02315 0.40024 0.0 0.0 1.0 255 0 0
0.01002 0.02078 0.40027 0.0 1.0 1.0 255 0 0
-0.00271 0.03366 0.39584 0.0 -0.0 1.0 255 0 0
-0.00053 0.02867 0.39488 1.0 -1.0 -0.0 255 0 0
-2e-05 0.02907 0.39546 1.0 -1.0 -0.0 255 0 0
0.00027 0.02991 0.39363 1.0 -0.0 -1.0 255 0 0
0.0009 0.03021 0.39474 1.0 -1.0 -0.0 255 0 0
-0.00221 0.03265 0.39507 0.0 -0.0 1.0 255 0 0
-0.0024 0.02781 0.39563 0.0 1.0 -0.0 255 0 0
-0.0025 0.0343 0.4004 0.0 0.0 -1.0 255 0 0
-0.00104 0.0342 0.39592 0.0 -1.0 1.0 255 0 0
-0.00223 0.03351 0.40038 0.0 0.0 -1.0 255 0 0
0.00358 0.02763 0.4004 0.0 -0.0 1.0 255 0 0
-0.00443 0.03262 0.39547 1.0 0.0 1.0 255 0 0
-0.00046 0.03404 0.40038 0.0 0.0 1.0 255 0 0
0.00579 0.02309 0.40045 0.0 0.0 1.0 255 0 0
-0.00338 0.0303 0.39563 1.0 0.0 -1.0 255 0 0
-0.00079 0.03471 0.39662 0.0 -1.0 1.0 255 0 0
-0.00155 0.0337 0.39558 0.0 -1.0 1.0 255 0 0
-0.00366 0.03105 0.39578 1.0 0.0 -0.0 255 0 0
0.0032 0.02901 0.40041 0.0 -0.0 1.0 255 0 0
-0.0002 0.03376 0.39533 0.0 -1.0 1.0 255 0 0
0.00534 0.02394 0.40033 0.0 0.0 1.0 255 0 0
0.00114 0.03042 0.39552 1.0 -1.0 0.0 255 0 0
-0.00097 0.02819 0.39617 0.0 -1.0 0.0 255 0 0
-0.0019 0.0323 0.40041 0.0 0.0 -1.0 255 0 0
-0.00329 0.0284 0.39537 1.0 1.0 -0.0 255 0 0
-0.003 0.03296 0.3954 0.0 -0.0 1.0 255 0 0
-0.00424 0.03145 0.39551 1.0 0.0 -0.0 255 0 0
0.00125 0.03242 0.40038 0.0 0.0 1.0 255 0 0
-0.00426 0.04521 0.3994 0.0 -0.0 -1.0 255 0 0
-0.00261 0.04584 0.39941 0.0 1.0 1.0 255 0 0
-0.00539 0.04436 0.39937 0.0 -0.0 1.0 255 0 0
-0.00202 0.0449 0.39948 0.0 -0.0 1.0 255 0 0
-0.00314 0.04389 0.39917 0.0 -1.0 1.0 255 0 0
-0.00474 0.04577 0.39909 0.0 -0.0 -1.0 255 0 0
-0.00448 0.044 0.3992 0.0 -0.0 1.0 255 0 0
-0.00405 0.04612 0.39901 0.0 -1.0 -1.0 255 0 0
-0.00313 0.0448 0.39958 0.0 -0.0 -1.0 255 0 0
-0.00344 0.0466 0.3988 0.0 -1.0 -1.0 255 0 0
-0.00431 0.04349 0.39862 0.0 -1.0 1.0 255 0 0
-0.00208 0.04384 0.39876 0.0 -1.0 1.0 255 0 0
-0.00261 0.04667 0.39859 0.0 1.0 -0.0 255 0 0
-0.00504 0.04647 0.39802 0.0 1.0 0.0 255 0 0
-0.00428 0.04652 0.39784 0.0 1.0 -0.0 255 0 0
-0.00364 0.0433 0.39772 0.0 -1.0 0.0 255 0 0
-0.00282 0.04344 0.39765 0.0 -1.0 -0.0 255 0 0
-0.00297 0.04625 0.39743 0.0 1.0 -1.0 255 0 0
-0.00202 0.04363 0.3971 0.0 -1.0 -0.0 255 0 0
-0.00229 0.04511 0.39698 0.0 0.0 -1.0 255 0 0
-0.00439 0.04631 0.39688 0.0 1.0 -0.0 255 0 0
-0.0029 0.04551 0.39697 0.0 0.0 -1.0 255 0 0
-0.0031 0.04413 0.39687 0.0 -0.0 -1.0 255 0 0
-0.00374 0.04595 0.39682 0.0 1.0 -1.0 255 0 0
-0.0037 0.04524 0.39655 0.0 0.0 -1.0 255 0 0
-0.0064 0.04441 0.39939 0.0 0.0 -1.0 0 0 255
-0.00748 0.04265 0.39892 0.0 0.0 1.0 0 0 255
-0.00587 0.04529 0.39916 0.0 -0.0 -1.0 0 0 255
-0.00746 0.04355 0.39903 0.0 -0.0 -1.0 0 0 255
-0.00676 0.04563 0.39897 0.0 -0.0 -1.0 0 0 255
-0.00794 0.04414 0.39902 0.0 -0.0 -1.0 0 0 255
-0.00775 0.04496 0.39885 0.0 -0.0 -1.0 0 0 255
-0.00638 0.04335 0.39883 0.0 -0.0 1.0 0 0 255
-0.00543 0.04286 0.39849 1.0 -0.0 1.0 0 0 255
-0.00941 0.04138 0.39864 1.0 0.0 -1.0 0 0 255
-0.00799 0.04334 0.39854 0.0 0.0 1.0 0 0 255
-0.00812 0.04538 0.39831 1.0 -1.0 -0.0 0 0 255
-0.00487 0.04316 0.39791 1.0 -0.0 0.0 0 0 255
-0.00617 0.04644 0.39824 0.0 -1.0 -1.0 0 0 255
-0.00693 0.04657 0.39791 0.0 -1.0 -0.0 0 0 255
-0.00954 0.04102 0.39793 1.0 0.0 -0.0 0 0 255
-0.00776 0.04603 0.39808 1.0 -1.0 -0.0 0 0 255
-0.0087 0.04407 0.39795 0.0 -1.0 -1.0 0 0 255
-0.00876 0.0449 0.39765 0.0 -1.0 -1.0 0 0 255
-0.00841 0.04566 0.39756 1.0 -1.0 -0.0 0 0 255
-0.00984 0.04048 0.39742 1.0 0.0 -0.0 0 0 255
-0.00439 0.04336 0.39729 1.0 -1.0 -0.0 0 0 255
-0.00477 0.04306 0.39671 1.0 -0.0 -0.0 0 0 255
-0.00896 0.04311 0.39175 0.0 0.0 1.0 0 0 255
-0.00575 0.04667 0.39726 0.0 1.0 -0.0 0 0 255
-0.00779 0.04626 0.39707 1.0 -1.0 0.0 0 0 255
-0.00813 0.04228 0.39272 0.0 -1.0 -1.0 0 0 255
-0.01 0.04457 0.39281 1.0 -1.0 0.0 0 0 255
-0.00533 0.04239 0.39672 1.0 0.0 0.0 0 0 255
-0.00617 0.04253 0.39335 1.0 -0.0 -0.0 0 0 255
-0.0068 0.04186 0.39296 0.0 -0.0 -1.0 0 0 255
-0.00917 0.04507 0.3931 1.0 -1.0 0.0 0 0 255
-0.00724 0.04112 0.39344 0.0 -1.0 -1.0 0 0 255
-0.00972 0.04143 0.39676 1.0 1.0 -0.0 0 0 255
-0.00631 0.04681 0.39672 0.0 1.0 -0.0 0 0 255
-0.0087 0.04504 0.39674 0.0 -1.0 0.0 0 0 255
-0.00872 0.04534 0.39411 0.0 -1.0 -0.0 0 0 255
-0.00945 0.03968 0.39618 1.0 1.0 0.0 0 0 255
-0.00804 0.04084 0.39374 0.0 -1.0 -1.0 0 0 255
-0.00679 0.04544 0.39456 0.0 1.0 -0.0 0 0 255
-0.00556 0.04477 0.39442 1.0 0.0 0.0 0 0 255
-0.00731 0.0405 0.39406 0.0 -1.0 -1.0 0 0 255
-0.00506 0.04282 0.39588 1.0 -0.0 -0.0 0 0 255
-0.01025 0.04434 0.39403 1.0 -1.0 0.0 0 0 255
-0.00648 0.04076 0.39382 0.0 -0.0 -1.0 0 0 255
-0.00579 0.04171 0.39421 1.0 -0.0 -1.0 0 0 255
-0.00531 0.04615 0.3963 0.0 1.0 -1.0 0 0 255
-0.00457 0.04376 0.39613 1.0 -0.0 -1.0 0 0 255
-0.00954 0.04045 0.39635 1.0 1.0 -0.0 0 0 255
-0.00942 0.0451 0.39398 1.0 -1.0 -0.0 0 0 255
-0.00805 0.04585 0.39399 0.0 -1.0 -0.0 0 0 255
-0.00599 0.04254 0.39421 1.0 -0.0 -0.0 0 0 255
-0.00554 0.04362 0.39416 1.0 -0.0 -0.0 0 0 255
-0.00496 0.04545 0.39627 0.0 0.0 -1.0 0 0 255
-0.00789 0.04578 0.39629 1.0 -1.0 0.0 0 0 255
-0.00606 0.04525 0.39408 1.0 1.0 0.0 0 0 255
-0.00879 0.04003 0.39442 0.0 -1.0 -0.0 0 0 255
-0.00938 0.04517 0.39496 0.0 -1.0 -0.0 0 0 255
-0.00696 0.03985 0.39455 0.0 -1.0 -1.0 0 0 255
-0.00798 0.04019 0.39442 0.0 1.0 1.0 0 0 255
-0.00523 0.04184 0.39597 1.0 0.0 -0.0 0 0 255
-0.00928 0.04489 0.39615 0.0 -1.0 0.0 0 0 255
-0.00682 0.04628 0.39602 0.0 -1.0 0.0 0 0 255
-0.006 0.04007 0.39474 0.0 -0.0 -1.0 0 0 255
-0.01067 0.04465 0.39514 0.0 -1.0 0.0 0 0 255
-0.01128 0.04393 0.39502 1.0 -1.0 1.0 0 0 255
-0.00589 0.04299 0.39487 1.0 -0.0 -0.0 0 0 255
-0.00854 0.03958 0.39525 0.0 1.0 0.0 0 0 255
-0.00773 0.04505 0.39513 0.0 -1.0 0.0 0 0 255
-0.00536 0.04095 0.39507 1.0 -0.0 -1.0 0 0 255
-0.00515 0.04335 0.395 1.0 -0.0 -0.0 0 0 255
-0.00544 0.04245 0.39512 1.0 -0.0 -0.0 0 0 255
-0.01001 0.04479 0.39569 0.0 -1.0 0.0 0 0 255
-0.00599 0.04615 0.39578 0.0 1.0 -1.0 0 0 255
-0.00492 0.04449 0.39556 1.0 0.0 -1.0 0 0 255
-0.00565 0.04526 0.39552 1.0 1.0 -0.0 0 0 255
-0.00846 0.04475 0.39565 0.0 -1.0 -0.0 0 0 255
-0.00181 0.04594 0.3992 0.0 0.0 1.0 255 0 0
-0.00107 0.04571 0.39917 0.0 0.0 1.0 255 0 0
-0.00136 0.04423 0.39912 0.0 -0.0 1.0 255 0 0
-0.00083 0.0469 0.39904 0.0 -1.0 0.0 255 0 0
-0.00043 0.04466 0.39909 0.0 -0.0 1.0 255 0 0
-3e-05 0.0467 0.39885 0.0 -0.0 1.0 255 0 0
-0.00032 0.04594 0.39901 0.0 1.0 0.0 255 0 0
0.00081 0.04514 0.39871 0.0 -0.0 1.0 255 0 0
-0.00041 0.04394 0.39878 0.0 -0.0 1.0 255 0 0
0.00068 0.0468 0.39872 0.0 1.0 1.0 255 0 0
0.00094 0.04599 0.39871 0.0 0.0 1.0 255 0 0
0.00083 0.04428 0.39862 0.0 -0.0 1.0 255 0 0
0.00063 0.0435 0.39844 0.0 -0.0 1.0 255 0 0
-0.0017 0.04685 0.39851 0.0 1.0 -0.0 255 0 0
-0.0008 0.04353 0.39829 0.0 -1.0 0.0 255 0 0
0.00173 0.04578 0.39836 0.0 0.0 -1.0 255 0 0
0.00166 0.04464 0.39825 1.0 0.0 -1.0 255 0 0
-0.00169 0.0436 0.39813 0.0 1.0 -0.0 255 0 0
0.00167 0.04702 0.39808 0.0 1.0 1.0 255 0 0
0.00016 0.046 0.39822 1.0 -0.0 1.0 255 0 0
0.00026 0.04676 0.39788 0.0 -1.0 0.0 255 0 0
-0.00064 0.04547 0.39787 1.0 1.0 -1.0 255 0 0
0.00184 0.0432 0.39802 0.0 -0.0 1.0 255 0 0
0.00103 0.04438 0.39772 0.0 0.0 -1.0 255 0 0
0.00042 0.04535 0.39797 1.0 0.0 -1.0 255 0 0
-0.00176 0.04636 0.39778 0.0 1.0 -0.0 255 0 0
9e-05 0.04416 0.39755 1.0 0.0 -1.0 255 0 0
-0.00104 0.0462 0.39771 0.0 1.0 -0.0 255 0 0
0.0018 0.04407 0.39754 0.0 1.0 -1.0 255 0 0
-0.00016 0.04302 0.39757 0.0 1.0 -1.0 255 0 0
0.00079 0.04248 0.39751 0.0 0.0 -1.0 255 0 0
0.00247 0.04223 0.39746 0.0 -0.0 1.0 255 0 0
-0.00168 0.04562 0.39724 0.0 -1.0 1.0 255 0 0
-0.00075 0.04449 0.39704 0.0 0.0 -1.0 255 0 0
0.00199 0.04167 0.39721 0.0 -0.0 1.0 255 0 0
0.0012 0.0433 0.39695 0.0 1.0 -1.0 255 0 0
0.00111 0.04174 0.39706 0.0 1.0 -1.0 255 0 0
-0.00034 0.04498 0.39637 0.0 0.0 -1.0 255 0 0
0.0039 0.03574 0.39669 0.0 1.0 0.0 255 0 0
0.00117 0.04649 0.39724 1.0 -1.0 -0.0 255 0 0
-0.00015 0.04623 0.39722 0.0 -1.0 0.0 255 0 0
0.00013 0.0459 0.39633 1.0 -1.0 0.0 255 0 0
0.00276 0.04298 0.39683 0.0 1.0 -1.0 255 0 0
0.00262 0.04132 0.39694 0.0 -0.0 1.0 255 0 0
-0.00097 0.04526 0.39668 0.0 0.0 -1.0 255 0 0
