ply
format ascii 1.0
element vertex 1052
property float x
property float y
property float z
property float nx
property float ny
property float nz
property uchar red
property uchar green
property uchar blue
element face 0
end_header
0.00736 0.04477 0.3884 0.0 -1.0 -0.0 255 0 0
0.00796 0.04503 0.38851 1.0 -1.0 0.0 255 0 0
0.00636 0.04494 0.38809 0.0 1.0 1.0 255 0 0
0.00844 0.04607 0.38807 1.0 0.0 0.0 255 0 0
0.00869 0.04535 0.38766 1.0 -0.0 0.0 255 0 0
0.00583 0.0454 0.38796 1.0 -0.0 1.0 255 0 0
0.0078 0.04683 0.38748 0.0 1.0 -0.0 255 0 0
0.00838 0.04489 0.38736 0.0 -1.0 -0.0 255 0 0
0.00741 0.04521 0.38755 0.0 1.0 1.0 255 0 0
0.00624 0.04576 0.38762 1.0 0.0 1.0 255 0 0
0.00778 0.0448 0.38792 0.0 -1.0 -0.0 255 0 0
0.00682 0.04629 0.38746 0.0 -1.0 1.0 255 0 0
0.00797 0.04553 0.38687 0.0 1.0 1.0 255 0 0
0.00701 0.04562 0.38732 0.0 -0.0 1.0 255 0 0
0.00845 0.04575 0.38645 0.0 0.0 1.0 255 0 0
0.00883 0.04551 0.387 1.0 -0.0 0.0 255 0 0
0.00791 0.04639 0.3867 0.0 1.0 -1.0 255 0 0
0.00617 0.04345 0.3941 0.0 1.0 -0.0 255 0 0
0.00874 0.04057 0.39428 0.0 1.0 -0.0 255 0 0
0.00915 0.04379 0.39476 0.0 1.0 -0.0 255 0 0
0.00949 0.04057 0.39492 0.0 1.0 -0.0 255 0 0
0.01146 0.04244 0.39445 1.0 1.0 0.0 255 0 0
0.01208 0.04146 0.39427 1.0 0.0 0.0 255 0 0
0.00546 0.04338 0.39405 0.0 1.0 -0.0 255 0 0
0.00759 0.04377 0.39468 0.0 -1.0 0.0 255 0 0
0.00848 0.0434 0.39397 0.0 -1.0 0.0 255 0 0
0.01098 0.04299 0.39403 1.0 1.0 0.0 255 0 0
0.00961 0.04042 0.39416 0.0 1.0 -0.0 255 0 0
0.00677 0.04056 0.3945 0.0 -1.0 -0.0 255 0 0
0.00671 0.04082 0.39372 0.0 -1.0 -0.0 255 0 0
0.00587 0.04057 0.39423 0.0 -1.0 -0.0 255 0 0
0.00961 0.04337 0.39369 0.0 -1.0 0.0 255 0 0
0.01194 0.04214 0.39413 1.0 0.0 1.0 255 0 0
0.00554 0.04372 0.39488 0.0 1.0 0.0 255 0 0
0.00827 0.04077 0.39371 0.0 1.0 0.0 255 0 0
0.00932 0.04049 0.39337 0.0 1.0 0.0 255 0 0
0.0075 0.04291 0.39345 0.0 -1.0 1.0 255 0 0
0.00686 0.04346 0.39415 0.0 1.0 -0.0 255 0 0
0.00826 0.04243 0.39295 1.0 -0.0 1.0 255 0 0
0.00984 0.04342 0.39445 0.0 1.0 -0.0 255 0 0
0.01095 0.04175 0.39799 0.0 -0.0 -1.0 255 0 0
0.0114 0.04288 0.39347 1.0 1.0 0.0 255 0 0
0.01136 0.04033 0.39372 0.0 -1.0 1.0 255 0 0
0.01022 0.04332 0.39386 0.0 1.0 -0.0 255 0 0
0.01152 0.04222 0.39805 0.0 0.0 1.0 255 0 0
0.00735 0.04133 0.39324 0.0 -1.0 -1.0 255 0 0
0.00688 0.04187 0.39302 0.0 -0.0 -1.0 255 0 0
0.00688 0.04269 0.39329 0.0 0.0 -1.0 255 0 0
0.00859 0.04298 0.39333 0.0 -1.0 1.0 255 0 0
0.00788 0.04187 0.39301 0.0 -0.0 1.0 255 0 0
0.00743 0.04085 0.39378 0.0 -1.0 -1.0 255 0 0
0.00944 0.04316 0.39305 0.0 -1.0 0.0 255 0 0
0.0059 0.04308 0.39352 0.0 1.0 -0.0 255 0 0
0.0101 0.04032 0.3937 0.0 1.0 -0.0 255 0 0
0.01215 0.04249 0.3977 1.0 0.0 0.0 255 0 0
0.01107 0.04111 0.39803 0.0 0.0 -1.0 255 0 0
0.00862 0.04103 0.3929 0.0 1.0 0.0 255 0 0
0.00665 0.04117 0.39319 0.0 -1.0 -1.0 255 0 0
0.00595 0.04094 0.39292 1.0 -1.0 -0.0 255 0 0
0.0118 0.04108 0.39727 1.0 -1.0 0.0 255 0 0
0.01042 0.04139 0.39747 0.0 0.0 -1.0 255 0 0
0.00858 0.04192 0.39231 1.0 -0.0 1.0 255 0 0
0.01017 0.04327 0.3927 0.0 -1.0 0.0 255 0 0
0.00804 0.04063 0.39457 0.0 1.0 -0.0 255 0 0
0.01172 0.04074 0.39422 0.0 -0.0 1.0 255 0 0
0.01079 0.04258 0.39743 0.0 -1.0 -1.0 255 0 0
0.01156 0.0429 0.39758 0.0 1.0 1.0 255 0 0
0.00948 0.04293 0.39226 0.0 -1.0 0.0 255 0 0
0.00892 0.04257 0.39239 1.0 -1.0 1.0 255 0 0
0.01116 0.04049 0.39705 0.0 -1.0 0.0 255 0 0
0.00861 0.04373 0.39519 0.0 1.0 0.0 255 0 0
0.00739 0.04061 0.39487 0.0 -1.0 0.0 255 0 0
0.01102 0.04224 0.39508 1.0 0.0 0.0 255 0 0
0.01048 0.0431 0.39487 0.0 1.0 0.0 255 0 0
0.01128 0.0416 0.395 1.0 -0.0 0.0 255 0 0
0.00971 0.04377 0.39515 0.0 1.0 0.0 255 0 0
0.01001 0.0425 0.39718 0.0 -1.0 -1.0 255 0 0
0.00969 0.04182 0.39719 0.0 0.0 -1.0 255 0 0
0.01159 0.04326 0.39702 0.0 1.0 0.0 255 0 0
0.00625 0.04047 0.39493 0.0 -1.0 0.0 255 0 0
0.00954 0.04081 0.396 0.0 1.0 -0.0 255 0 0
0.01125 0.04096 0.39505 1.0 -1.0 0.0 255 0 0
0.01162 0.04215 0.39608 1.0 0.0 -0.0 255 0 0
0.01204 0.04267 0.39693 1.0 0.0 -0.0 255 0 0
0.01037 0.04082 0.39704 0.0 1.0 -1.0 255 0 0
0.00637 0.04382 0.39518 0.0 -1.0 -0.0 255 0 0
0.00531 0.04049 0.39456 0.0 -1.0 -0.0 255 0 0
0.00931 0.04252 0.397 0.0 -0.0 -1.0 255 0 0
0.00983 0.04113 0.39694 0.0 1.0 -1.0 255 0 0
0.01205 0.04195 0.39699 1.0 -0.0 0.0 255 0 0
0.00851 0.04213 0.3968 0.0 0.0 -1.0 255 0 0
0.01019 0.04347 0.39582 0.0 1.0 0.0 255 0 0
0.00914 0.04158 0.39684 0.0 0.0 -1.0 255 0 0
0.00886 0.04286 0.39665 0.0 -1.0 -1.0 255 0 0
0.00768 0.04253 0.39663 0.0 -0.0 -1.0 255 0 0
0.00714 0.04366 0.39565 0.0 -1.0 -0.0 255 0 0
0.00922 0.04363 0.39557 0.0 1.0 0.0 255 0 0
0.00791 0.04075 0.39528 0.0 1.0 -0.0 255 0 0
0.00642 0.04192 0.39667 0.0 -0.0 1.0 255 0 0
0.0102 0.04044 0.39469 0.0 -1.0 0.0 255 0 0
0.01077 0.04056 0.39553 0.0 -1.0 0.0 255 0 0
0.01098 0.04308 0.39692 0.0 -1.0 -1.0 255 0 0
0.00574 0.04259 0.3965 0.0 0.0 1.0 255 0 0
0.01134 0.04137 0.3956 1.0 -1.0 0.0 255 0 0
0.00604 0.04049 0.39553 0.0 -1.0 0.0 255 0 0
0.00674 0.04251 0.39662 0.0 -0.0 -1.0 255 0 0
0.00715 0.04188 0.39651 0.0 -0.0 1.0 255 0 0
0.00576 0.04146 0.39657 0.0 -0.0 1.0 255 0 0
0.01038 0.04313 0.39649 0.0 1.0 0.0 255 0 0
0.00859 0.04128 0.3964 0.0 1.0 -1.0 255 0 0
0.00553 0.04338 0.39591 0.0 1.0 0.0 255 0 0
0.00846 0.0433 0.39619 0.0 -1.0 -1.0 255 0 0
0.007 0.04097 0.39593 0.0 -1.0 1.0 255 0 0
0.00817 0.04102 0.39586 0.0 1.0 -1.0 255 0 0
0.01109 0.04322 0.39573 1.0 1.0 -0.0 255 0 0
0.0116 0.04296 0.39626 1.0 1.0 -0.0 255 0 0
0.01134 0.04066 0.39632 0.0 -1.0 0.0 255 0 0
0.00622 0.04353 0.39584 0.0 1.0 0.0 255 0 0
0.00527 0.04052 0.39577 0.0 -1.0 0.0 255 0 0
0.00776 0.04154 0.3963 0.0 0.0 -1.0 255 0 0
0.00626 0.04098 0.39621 0.0 -1.0 1.0 255 0 0
0.00657 0.04305 0.39638 0.0 -1.0 -1.0 255 0 0
0.00717 0.04332 0.39622 0.0 1.0 1.0 255 0 0
0.00776 0.04348 0.39594 0.0 1.0 1.0 255 0 0
0.00919 0.04329 0.3962 0.0 -1.0 -1.0 255 0 0
0.00881 0.04088 0.39581 0.0 1.0 -0.0 255 0 0
0.01004 0.0406 0.39561 0.0 -1.0 0.0 255 0 0
0.01855 0.04289 0.39467 1.0 -1.0 -1.0 255 0 0
0.02209 0.04186 0.39997 1.0 -0.0 0.0 255 0 0
0.02253 0.04236 0.39951 1.0 -0.0 0.0 255 0 0
0.02193 0.04294 0.39973 1.0 -0.0 0.0 255 0 0
0.02164 0.04238 0.39985 1.0 -0.0 0.0 255 0 0
0.021 0.04031 0.40004 1.0 -1.0 -0.0 255 0 0
0.02137 0.04092 0.39988 1.0 -1.0 -0.0 255 0 0
0.01994 0.04226 0.39456 1.0 -0.0 -1.0 255 0 0
0.02004 0.04598 0.39463 1.0 0.0 -0.0 255 0 0
0.02008 0.03968 0.39916 1.0 -1.0 -0.0 255 0 0
0.02074 0.03948 0.39962 1.0 -1.0 0.0 255 0 0
0.01633 0.04004 0.39431 0.0 -0.0 -1.0 255 0 0
0.02144 0.04171 0.39942 1.0 -1.0 0.0 255 0 0
0.01578 0.03956 0.39429 0.0 -1.0 -1.0 255 0 0
0.02217 0.04109 0.39933 1.0 -0.0 0.0 255 0 0
0.0153 0.03831 0.39427 0.0 -1.0 -0.0 255 0 0
0.01933 0.03871 0.39725 0.0 -1.0 0.0 255 0 0
0.02248 0.04118 0.39876 1.0 -0.0 0.0 255 0 0
0.02028 0.04022 0.39951 1.0 -0.0 -0.0 255 0 0
0.01686 0.04146 0.39428 0.0 -0.0 -1.0 255 0 0
0.02126 0.03933 0.39919 1.0 -1.0 0.0 255 0 0
0.02273 0.04201 0.39886 1.0 -0.0 0.0 255 0 0
0.01765 0.03893 0.39397 0.0 -1.0 -1.0 255 0 0
0.02152 0.04144 0.39816 1.0 -0.0 0.0 255 0 0
0.01627 0.03828 0.39458 0.0 1.0 0.0 255 0 0
0.02083 0.04318 0.39433 1.0 -0.0 -1.0 255 0 0
0.02119 0.04545 0.39435 1.0 0.0 -0.0 255 0 0
0.01716 0.04233 0.39432 0.0 -0.0 -1.0 255 0 0
0.0212 0.04101 0.39869 1.0 -1.0 0.0 255 0 0
0.01975 0.04558 0.3942 1.0 0.0 -1.0 255 0 0
0.02084 0.04073 0.39932 1.0 -0.0 0.0 255 0 0
0.02166 0.04044 0.39921 1.0 -1.0 0.0 255 0 0
0.01454 0.03913 0.39423 0.0 -1.0 -1.0 255 0 0
0.02303 0.04274 0.39843 1.0 -0.0 0.0 255 0 0
0.02181 0.04235 0.39907 1.0 -0.0 0.0 255 0 0
0.01609 0.04179 0.39408 0.0 -0.0 -1.0 255 0 0
0.01923 0.04212 0.39413 1.0 -0.0 -1.0 255 0 0
0.02182 0.04207 0.39842 1.0 -0.0 0.0 255 0 0
0.01704 0.04045 0.3945 0.0 -0.0 -1.0 255 0 0
0.02123 0.04396 0.39428 1.0 -0.0 -1.0 255 0 0
0.02078 0.04621 0.39452 1.0 0.0 -1.0 255 0 0
0.01864 0.03988 0.39411 1.0 -0.0 -1.0 255 0 0
0.02306 0.04343 0.3985 1.0 -0.0 0.0 255 0 0
0.02219 0.04358 0.39907 1.0 -0.0 0.0 255 0 0
0.0228 0.04278 0.3991 1.0 -0.0 0.0 255 0 0
0.0182 0.0392 0.3941 0.0 -1.0 -1.0 255 0 0
0.01668 0.03855 0.39411 0.0 -1.0 -1.0 255 0 0
0.01914 0.04027 0.39451 1.0 -0.0 -1.0 255 0 0
0.01895 0.0435 0.39419 1.0 -1.0 -1.0 255 0 0
0.01868 0.04177 0.394 0.0 -0.0 -1.0 255 0 0
0.0127 0.04181 0.39395 0.0 0.0 1.0 255 0 0
0.01528 0.03996 0.39398 0.0 -0.0 -1.0 255 0 0
0.0223 0.04328 0.39843 1.0 -0.0 0.0 255 0 0
0.01548 0.0415 0.39394 0.0 -0.0 -1.0 255 0 0
0.02031 0.03989 0.39824 1.0 -0.0 -0.0 255 0 0
0.01603 0.04103 0.394 0.0 -0.0 -1.0 255 0 0
0.02112 0.04476 0.39408 1.0 0.0 -1.0 255 0 0
0.02156 0.03956 0.39805 1.0 -1.0 0.0 255 0 0
0.01306 0.04118 0.39386 0.0 0.0 1.0 255 0 0
0.01932 0.04413 0.39394 1.0 -0.0 -1.0 255 0 0
0.01442 0.03998 0.39378 0.0 -0.0 -1.0 255 0 0
0.02058 0.04683 0.39808 1.0 1.0 -0.0 255 0 0
0.01943 0.04496 0.39378 1.0 -0.0 -1.0 255 0 0
0.01473 0.04156 0.39386 0.0 -0.0 -1.0 255 0 0
0.01503 0.04216 0.39384 0.0 -0.0 -1.0 255 0 0
0.0137 0.04166 0.3939 0.0 0.0 1.0 255 0 0
0.01825 0.04095 0.39377 1.0 -0.0 -1.0 255 0 0
0.01875 0.04057 0.39396 0.0 -0.0 -1.0 255 0 0
0.01519 0.04087 0.39386 0.0 -0.0 -1.0 255 0 0
0.0192 0.04668 0.3935 1.0 1.0 -1.0 255 0 0
0.02076 0.04041 0.39844 1.0 -1.0 0.0 255 0 0
0.0133 0.03925 0.39385 0.0 -0.0 -1.0 255 0 0
0.01224 0.04048 0.39363 0.0 -0.0 1.0 255 0 0
0.01233 0.03852 0.39357 0.0 -0.0 -1.0 255 0 0
0.01696 0.03897 0.39371 0.0 -1.0 -1.0 255 0 0
0.01768 0.04209 0.39457 1.0 -0.0 -1.0 255 0 0
0.01634 0.04292 0.39339 0.0 -1.0 -1.0 255 0 0
0.01431 0.04088 0.39376 0.0 0.0 -1.0 255 0 0
0.02044 0.03887 0.39854 0.0 -1.0 0.0 255 0 0
0.01919 0.03938 0.39464 1.0 -1.0 -1.0 255 0 0
0.02007 0.0428 0.39388 1.0 -1.0 -1.0 255 0 0
0.01957 0.04103 0.39456 0.0 -0.0 -1.0 255 0 0
0.01772 0.03967 0.39373 0.0 -1.0 -1.0 255 0 0
0.02006 0.04619 0.39358 1.0 1.0 -1.0 255 0 0
0.01852 0.04211 0.39349 0.0 -1.0 -1.0 255 0 0
0.01757 0.04303 0.39369 0.0 -1.0 -1.0 255 0 0
0.01624 0.03897 0.39351 0.0 -1.0 -1.0 255 0 0
0.01387 0.04221 0.39368 0.0 0.0 1.0 255 0 0
0.01417 0.03831 0.39409 0.0 -1.0 -1.0 255 0 0
0.01988 0.04675 0.39419 1.0 1.0 -1.0 255 0 0
0.01289 0.03877 0.39415 0.0 -0.0 -1.0 255 0 0
0.02204 0.04249 0.39798 1.0 -0.0 0.0 255 0 0
0.02083 0.04525 0.39371 1.0 0.0 -1.0 255 0 0
0.01751 0.04149 0.39351 0.0 -0.0 -1.0 255 0 0
0.02013 0.04136 0.39473 1.0 -0.0 -1.0 255 0 0
0.01782 0.04034 0.39357 0.0 -0.0 -1.0 255 0 0
0.01543 0.0426 0.39352 0.0 -1.0 -1.0 255 0 0
0.01711 0.03962 0.39345 0.0 -0.0 -1.0 255 0 0
0.01842 0.04335 0.39382 1.0 -1.0 -0.0 255 0 0
0.01557 0.03857 0.39364 0.0 -1.0 -1.0 255 0 0
0.02315 0.04239 0.39785 1.0 -0.0 0.0 255 0 0
0.02021 0.0476 0.39805 1.0 1.0 -0.0 255 0 0
0.01334 0.04015 0.39364 0.0 0.0 1.0 255 0 0
0.0162 0.03902 0.39493 0.0 -1.0 -0.0 255 0 0
0.01921 0.04551 0.39355 1.0 0.0 -1.0 255 0 0
0.01039 0.04023 0.39314 0.0 1.0 -1.0 255 0 0
0.01249 0.03918 0.39359 0.0 -0.0 -1.0 255 0 0
0.0127 0.03983 0.3935 0.0 0.0 -1.0 255 0 0
0.01922 0.0424 0.39351 1.0 -0.0 -1.0 255 0 0
0.01388 0.03859 0.39342 0.0 -1.0 -1.0 255 0 0
0.01311 0.03848 0.39356 0.0 -1.0 -1.0 255 0 0
0.01274 0.04242 0.39346 0.0 1.0 1.0 255 0 0
0.02203 0.04001 0.39808 1.0 -1.0 0.0 255 0 0
0.02122 0.04107 0.39762 1.0 -0.0 -0.0 255 0 0
0.02043 0.04405 0.39336 1.0 -0.0 -1.0 255 0 0
0.012 0.03954 0.39325 0.0 0.0 -1.0 255 0 0
0.01785 0.04144 0.39467 1.0 -0.0 -1.0 255 0 0
0.02167 0.04427 0.3948 1.0 0.0 -1.0 255 0 0
0.017 0.04108 0.39325 0.0 -0.0 -1.0 255 0 0
0.01626 0.03979 0.39321 0.0 -0.0 -1.0 255 0 0
0.01992 0.03857 0.39707 0.0 -1.0 -0.0 255 0 0
0.02327 0.04484 0.39768 1.0 1.0 0.0 255 0 0
0.02044 0.04468 0.3932 1.0 0.0 -1.0 255 0 0
0.02276 0.04359 0.39788 1.0 0.0 0.0 255 0 0
0.01546 0.03902 0.39466 0.0 -1.0 -0.0 255 0 0
0.01823 0.04376 0.39328 1.0 -0.0 -1.0 255 0 0
0.01805 0.03864 0.3947 0.0 -1.0 -0.0 255 0 0
0.01714 0.04028 0.3933 0.0 -0.0 -1.0 255 0 0
0.01652 0.04056 0.39312 0.0 -0.0 -1.0 255 0 0
0.01205 0.04262 0.39331 0.0 1.0 0.0 255 0 0
0.01136 0.03919 0.39311 0.0 0.0 -1.0 255 0 0
0.01483 0.03906 0.39324 0.0 -0.0 -1.0 255 0 0
0.01849 0.0462 0.39319 0.0 0.0 -1.0 255 0 0
0.01867 0.04422 0.39313 0.0 -0.0 -1.0 255 0 0
0.01234 0.04132 0.39317 0.0 -0.0 -1.0 255 0 0
0.01973 0.04014 0.39479 1.0 -0.0 -1.0 255 0 0
0.01271 0.0407 0.39305 0.0 0.0 -1.0 255 0 0
0.02014 0.04564 0.39316 1.0 0.0 -1.0 255 0 0
0.01572 0.04007 0.39304 0.0 0.0 1.0 255 0 0
0.01827 0.04479 0.39279 0.0 -0.0 -1.0 255 0 0
0.0143 0.04268 0.39317 0.0 1.0 1.0 255 0 0
0.01296 0.04141 0.39301 0.0 0.0 1.0 255 0 0
0.01671 0.04181 0.39301 0.0 -1.0 -1.0 255 0 0
0.01377 0.03839 0.39484 0.0 1.0 0.0 255 0 0
0.01149 0.0429 0.39277 0.0 1.0 0.0 255 0 0
0.0224 0.04055 0.39805 1.0 -0.0 0.0 255 0 0
0.01122 0.04129 0.39315 1.0 -0.0 -1.0 255 0 0
0.02137 0.04324 0.39498 1.0 -0.0 -1.0 255 0 0
0.01856 0.04555 0.39304 1.0 0.0 -1.0 255 0 0
0.01372 0.04127 0.39296 0.0 -0.0 -1.0 255 0 0
0.0134 0.04072 0.39298 0.0 -0.0 -1.0 255 0 0
0.01303 0.0427 0.393 0.0 1.0 1.0 255 0 0
0.0152 0.03958 0.39305 0.0 -0.0 -1.0 255 0 0
0.01381 0.03931 0.39297 0.0 -0.0 -1.0 255 0 0
0.01509 0.04143 0.3929 0.0 0.0 1.0 255 0 0
0.01531 0.04071 0.39296 0.0 -0.0 -1.0 255 0 0
0.01456 0.04108 0.39298 0.0 -0.0 -1.0 255 0 0
0.01177 0.04165 0.39308 0.0 -0.0 -1.0 255 0 0
0.01214 0.04045 0.39297 0.0 0.0 -1.0 255 0 0
0.02256 0.04549 0.39762 1.0 0.0 -1.0 255 0 0
0.01757 0.03981 0.39511 0.0 -1.0 -1.0 255 0 0
0.01465 0.04044 0.39293 0.0 -0.0 -1.0 255 0 0
0.0237 0.04385 0.39753 1.0 0.0 0.0 255 0 0
0.01299 0.0401 0.39288 0.0 -0.0 -1.0 255 0 0
0.01859 0.04275 0.39257 1.0 -1.0 -1.0 255 0 0
0.02065 0.03881 0.39772 0.0 -1.0 0.0 255 0 0
0.01807 0.04222 0.39291 0.0 -1.0 -1.0 255 0 0
0.01579 0.04146 0.39302 0.0 -0.0 -1.0 255 0 0
0.01446 0.0398 0.39291 0.0 -0.0 -1.0 255 0 0
0.02001 0.04498 0.39282 1.0 0.0 -1.0 255 0 0
0.01716 0.04351 0.39292 0.0 -0.0 -1.0 255 0 0
0.01639 0.04425 0.39217 0.0 -0.0 -1.0 255 0 0
0.01303 0.03938 0.39285 0.0 -0.0 -1.0 255 0 0
0.01239 0.03891 0.39293 0.0 -0.0 -1.0 255 0 0
0.01079 0.03913 0.39274 1.0 1.0 -1.0 255 0 0
0.01372 0.04293 0.39276 0.0 -1.0 -1.0 255 0 0
0.01987 0.04394 0.39282 1.0 -0.0 -1.0 255 0 0
0.01922 0.04291 0.39292 1.0 -1.0 -1.0 255 0 0
0.01802 0.04414 0.3928 1.0 -0.0 -1.0 255 0 0
0.0204 0.04453 0.39495 1.0 -0.0 -1.0 255 0 0
0.01803 0.04598 0.39273 0.0 0.0 -1.0 255 0 0
0.02231 0.04304 0.39753 1.0 -0.0 -0.0 255 0 0
0.01169 0.04206 0.39258 0.0 -1.0 -1.0 255 0 0
0.01733 0.04208 0.39274 0.0 -0.0 -1.0 255 0 0
0.01615 0.04192 0.39264 0.0 -1.0 -1.0 255 0 0
0.01169 0.04003 0.39263 0.0 -0.0 -1.0 255 0 0
0.02266 0.04111 0.3977 1.0 -0.0 0.0 255 0 0
0.01439 0.0417 0.39264 0.0 -1.0 -1.0 255 0 0
0.01351 0.04175 0.39259 0.0 1.0 1.0 255 0 0
0.01256 0.04192 0.39252 0.0 1.0 1.0 255 0 0
0.02073 0.04046 0.3977 1.0 -1.0 0.0 255 0 0
0.01066 0.04105 0.39252 1.0 -0.0 -1.0 255 0 0
0.01079 0.04029 0.39223 1.0 0.0 -1.0 255 0 0
0.0157 0.04417 0.39202 0.0 -0.0 -1.0 255 0 0
0.01451 0.03868 0.39492 0.0 -1.0 -0.0 255 0 0
0.01692 0.04577 0.39218 0.0 0.0 -1.0 255 0 0
0.01614 0.04377 0.39249 0.0 -0.0 -1.0 255 0 0
0.01777 0.04254 0.39239 0.0 -1.0 -1.0 255 0 0
0.01954 0.04463 0.39235 1.0 -0.0 -1.0 255 0 0
0.01142 0.03938 0.39242 1.0 0.0 -1.0 255 0 0
0.01507 0.04332 0.3925 0.0 -1.0 -1.0 255 0 0
0.01695 0.04489 0.39214 0.0 0.0 -1.0 255 0 0
0.01915 0.04341 0.39247 1.0 -0.0 -1.0 255 0 0
0.01703 0.04401 0.39249 0.0 -0.0 -1.0 255 0 0
0.01023 0.04167 0.39235 0.0 -0.0 -1.0 255 0 0
0.01871 0.04233 0.39504 1.0 -0.0 -1.0 255 0 0
0.02296 0.04415 0.39751 1.0 0.0 -0.0 255 0 0
0.01744 0.04662 0.39282 0.0 1.0 -1.0 255 0 0
0.01756 0.04643 0.39222 0.0 1.0 -1.0 255 0 0
0.01612 0.04638 0.39223 0.0 1.0 -1.0 255 0 0
0.01745 0.04541 0.39232 0.0 0.0 -1.0 255 0 0
0.00954 0.0404 0.39239 1.0 1.0 -0.0 255 0 0
0.01018 0.03946 0.39245 1.0 1.0 -1.0 255 0 0
0.01989 0.04384 0.3948 1.0 -0.0 -1.0 255 0 0
0.01677 0.03932 0.39492 0.0 -1.0 -0.0 255 0 0
0.02036 0.04531 0.39485 1.0 0.0 -1.0 255 0 0
0.01916 0.04575 0.39244 1.0 0.0 -1.0 255 0 0
0.01865 0.04569 0.39208 0.0 0.0 -1.0 255 0 0
0.01753 0.04472 0.39241 0.0 -0.0 -1.0 255 0 0
0.02098 0.04193 0.3952 0.0 0.0 -1.0 255 0 0
0.02175 0.03962 0.39729 1.0 -1.0 -0.0 255 0 0
0.01636 0.04234 0.39217 0.0 -1.0 -1.0 255 0 0
0.02133 0.04579 0.39498 1.0 0.0 -0.0 255 0 0
0.02129 0.04601 0.39728 1.0 1.0 -0.0 255 0 0
0.01677 0.04655 0.39215 0.0 1.0 -1.0 255 0 0
0.01053 0.04318 0.39215 0.0 -1.0 0.0 255 0 0
0.02029 0.04069 0.39498 1.0 -0.0 -1.0 255 0 0
0.01262 0.04314 0.39232 0.0 1.0 1.0 255 0 0
0.0128 0.04227 0.39193 0.0 1.0 1.0 255 0 0
0.01135 0.04238 0.39207 0.0 -1.0 -1.0 255 0 0
0.01172 0.04316 0.39217 0.0 -1.0 -1.0 255 0 0
0.02301 0.04203 0.39733 1.0 -0.0 -0.0 255 0 0
0.0146 0.04383 0.39191 0.0 -0.0 -1.0 255 0 0
0.01503 0.0423 0.39203 0.0 -1.0 -1.0 255 0 0
0.01895 0.04508 0.39198 1.0 0.0 -1.0 255 0 0
0.01631 0.04574 0.39196 0.0 0.0 -1.0 255 0 0
0.01217 0.04234 0.3919 0.0 1.0 1.0 255 0 0
0.01578 0.04257 0.39183 0.0 -1.0 -1.0 255 0 0
0.00907 0.04085 0.39206 1.0 1.0 -0.0 255 0 0
0.01068 0.04312 0.39152 0.0 -1.0 0.0 255 0 0
0.02006 0.04483 0.39449 1.0 -0.0 -0.0 255 0 0
0.01405 0.04349 0.39207 0.0 -1.0 -1.0 255 0 0
0.01382 0.04233 0.39185 0.0 1.0 1.0 255 0 0
0.01128 0.04352 0.39174 0.0 -1.0 -0.0 255 0 0
0.01872 0.0438 0.39192 0.0 -0.0 -1.0 255 0 0
0.01035 0.04094 0.392 1.0 -0.0 -1.0 255 0 0
0.01955 0.03856 0.39644 0.0 -1.0 -0.0 255 0 0
0.01985 0.0391 0.3983 0.0 1.0 -0.0 255 0 0
0.01051 0.04222 0.39203 1.0 0.0 -1.0 255 0 0
0.00986 0.04238 0.39014 1.0 -1.0 0.0 255 0 0
0.02336 0.04314 0.39788 1.0 -0.0 0.0 255 0 0
0.01565 0.04554 0.39173 0.0 0.0 -1.0 255 0 0
0.01515 0.04274 0.3916 0.0 -1.0 -1.0 255 0 0
0.01509 0.04431 0.39168 0.0 -0.0 -1.0 255 0 0
0.01964 0.03938 0.39754 1.0 -0.0 -0.0 255 0 0
0.0224 0.04454 0.3972 1.0 0.0 -1.0 255 0 0
0.01351 0.04368 0.39179 0.0 -1.0 -1.0 255 0 0
0.01985 0.04664 0.39483 1.0 1.0 -0.0 255 0 0
0.01868 0.04455 0.39173 0.0 -0.0 -1.0 255 0 0
0.0178 0.04326 0.39179 0.0 -0.0 -1.0 255 0 0
0.01721 0.04304 0.39175 0.0 -0.0 -1.0 255 0 0
0.01659 0.04283 0.39174 0.0 -1.0 -1.0 255 0 0
0.00909 0.04168 0.38991 1.0 -1.0 0.0 255 0 0
0.00891 0.04115 0.39155 1.0 -0.0 0.0 255 0 0
0.01532 0.04635 0.39151 0.0 -1.0 1.0 255 0 0
0.01396 0.04434 0.39152 0.0 -0.0 -1.0 255 0 0
0.00884 0.0394 0.39119 1.0 0.0 -1.0 255 0 0
0.01257 0.04379 0.39168 0.0 -1.0 -1.0 255 0 0
0.01022 0.04184 0.39162 1.0 -0.0 -1.0 255 0 0
0.01033 0.04049 0.39129 1.0 -0.0 -1.0 255 0 0
0.01343 0.04267 0.39142 0.0 -1.0 -1.0 255 0 0
0.0182 0.04533 0.39162 0.0 0.0 -1.0 255 0 0
0.01059 0.03982 0.39168 1.0 0.0 -1.0 255 0 0
0.01507 0.04549 0.3914 0.0 0.0 -1.0 255 0 0
0.01581 0.04477 0.39174 0.0 -0.0 -1.0 255 0 0
0.01441 0.0428 0.3914 0.0 -1.0 -1.0 255 0 0
0.01743 0.04369 0.3914 0.0 -0.0 -1.0 255 0 0
0.01752 0.0455 0.39145 0.0 0.0 -1.0 255 0 0
0.01268 0.04274 0.3914 0.0 1.0 1.0 255 0 0
0.01804 0.0403 0.39524 1.0 -0.0 -1.0 255 0 0
0.01987 0.03952 0.3951 1.0 -0.0 -1.0 255 0 0
0.01783 0.04456 0.3913 0.0 -0.0 -1.0 255 0 0
0.02335 0.04269 0.39713 1.0 -0.0 -0.0 255 0 0
0.02156 0.04199 0.39724 1.0 -1.0 -0.0 255 0 0
0.00964 0.04279 0.3915 0.0 -1.0 0.0 255 0 0
0.01274 0.04435 0.39133 0.0 0.0 1.0 255 0 0
0.00938 0.03998 0.39158 1.0 0.0 -1.0 255 0 0
0.01474 0.04479 0.3914 0.0 -0.0 -1.0 255 0 0
0.01678 0.04588 0.39151 0.0 0.0 -1.0 255 0 0
0.01186 0.04303 0.39129 0.0 -1.0 -1.0 255 0 0
0.01869 0.04138 0.39523 1.0 -0.0 -1.0 255 0 0
0.01566 0.0431 0.39136 0.0 -0.0 -1.0 255 0 0
0.01697 0.04532 0.39116 0.0 0.0 -1.0 255 0 0
0.00876 0.04077 0.3909 1.0 -0.0 -0.0 255 0 0
0.00988 0.03897 0.39186 1.0 0.0 -1.0 255 0 0
0.01182 0.04374 0.39113 0.0 -1.0 -1.0 255 0 0
0.01863 0.03854 0.39517 0.0 -1.0 -0.0 255 0 0
0.01344 0.04315 0.39102 0.0 -0.0 -1.0 255 0 0
0.02057 0.03872 0.39695 0.0 -1.0 -0.0 255 0 0
0.01682 0.04422 0.39101 0.0 -0.0 -1.0 255 0 0
0.00986 0.04263 0.39073 1.0 -1.0 0.0 255 0 0
0.00913 0.04232 0.39131 1.0 -1.0 0.0 255 0 0
0.00863 0.04134 0.39059 1.0 -0.0 0.0 255 0 0
0.01059 0.04227 0.39108 1.0 -1.0 -0.0 255 0 0
0.01023 0.03964 0.39107 1.0 -0.0 -1.0 255 0 0
0.0164 0.04515 0.39094 0.0 0.0 -1.0 255 0 0
0.0212 0.03913 0.39731 1.0 -1.0 -0.0 255 0 0
0.00999 0.03897 0.39118 1.0 -0.0 -1.0 255 0 0
0.01254 0.0433 0.39101 0.0 0.0 1.0 255 0 0
0.02011 0.04009 0.39711 1.0 -1.0 -1.0 255 0 0
0.01628 0.04375 0.39105 0.0 -0.0 -1.0 255 0 0
0.01019 0.0415 0.39096 1.0 -0.0 -0.0 255 0 0
0.01566 0.04545 0.39089 0.0 0.0 -1.0 255 0 0
0.01343 0.0444 0.39102 0.0 -0.0 -1.0 255 0 0
0.01487 0.04346 0.39101 0.0 -0.0 -1.0 255 0 0
0.00892 0.04008 0.3911 1.0 -0.0 -1.0 255 0 0
0.00923 0.03879 0.39089 1.0 -0.0 -1.0 255 0 0
0.02019 0.04019 0.39543 1.0 -0.0 -1.0 255 0 0
0.01301 0.04389 0.39088 0.0 0.0 1.0 255 0 0
0.01581 0.04478 0.39077 0.0 0.0 -1.0 255 0 0
0.02118 0.04255 0.39531 1.0 -0.0 -1.0 255 0 0
0.01434 0.0437 0.39078 0.0 -0.0 -1.0 255 0 0
0.01557 0.04405 0.39083 0.0 -0.0 -1.0 255 0 0
0.02058 0.04086 0.39695 1.0 -1.0 -1.0 255 0 0
0.02208 0.04013 0.39689 1.0 -1.0 -0.0 255 0 0
0.01494 0.04413 0.39074 0.0 -0.0 -1.0 255 0 0
0.01405 0.04446 0.39086 0.0 0.0 1.0 255 0 0
0.0174 0.03839 0.39484 0.0 -1.0 -0.0 255 0 0
0.01563 0.03817 0.395 0.0 -1.0 -0.0 255 0 0
0.02193 0.04287 0.39699 1.0 -0.0 -1.0 255 0 0
0.00997 0.0414 0.39006 1.0 -1.0 -0.0 255 0 0
0.01928 0.03873 0.39526 0.0 -1.0 -0.0 255 0 0
0.02115 0.04126 0.39531 1.0 -0.0 -1.0 255 0 0
0.00966 0.0397 0.39057 1.0 -0.0 -0.0 255 0 0
0.01908 0.04191 0.39538 1.0 -0.0 -1.0 255 0 0
0.01051 0.0426 0.39053 0.0 -1.0 0.0 255 0 0
0.00903 0.0419 0.39051 1.0 -1.0 0.0 255 0 0
0.01048 0.04199 0.3901 1.0 -0.0 -0.0 255 0 0
0.00946 0.04048 0.39029 1.0 -0.0 -0.0 255 0 0
0.00847 0.03949 0.39029 1.0 0.0 -0.0 255 0 0
0.02192 0.04355 0.39546 1.0 -0.0 -1.0 255 0 0
0.02005 0.0473 0.39688 1.0 1.0 -0.0 255 0 0
0.01705 0.03902 0.39548 0.0 -1.0 -0.0 255 0 0
0.0192 0.04265 0.39528 1.0 -0.0 -1.0 255 0 0
0.00882 0.0412 0.38947 1.0 -0.0 0.0 255 0 0
0.00844 0.04029 0.38992 1.0 0.0 0.0 255 0 0
0.02319 0.04433 0.39696 1.0 0.0 -0.0 255 0 0
0.02205 0.04455 0.39541 1.0 0.0 -1.0 255 0 0
0.00993 0.04205 0.38912 0.0 -1.0 0.0 255 0 0
0.00922 0.04067 0.38939 1.0 -0.0 0.0 255 0 0
0.02235 0.04373 0.39685 1.0 -0.0 -1.0 255 0 0
0.01041 0.04182 0.38947 1.0 -1.0 0.0 255 0 0
0.00985 0.04116 0.38934 1.0 -1.0 0.0 255 0 0
0.02006 0.04681 0.39736 1.0 1.0 -0.0 255 0 0
0.02261 0.045 0.39674 1.0 1.0 -0.0 255 0 0
0.02376 0.04379 0.39692 1.0 0.0 -0.0 255 0 0
0.02342 0.04326 0.39655 1.0 -0.0 -0.0 255 0 0
0.02259 0.04149 0.39679 1.0 -0.0 -0.0 255 0 0
0.02087 0.04483 0.39536 1.0 0.0 -1.0 255 0 0
0.01967 0.04325 0.39533 1.0 -0.0 -1.0 255 0 0
0.01985 0.04174 0.39588 0.0 -0.0 -1.0 255 0 0
0.0093 0.04166 0.38924 1.0 -1.0 0.0 255 0 0
0.00988 0.0412 0.38861 1.0 -1.0 0.0 255 0 0
0.02019 0.04327 0.39574 1.0 -0.0 -1.0 255 0 0
0.01859 0.0407 0.39552 0.0 -0.0 -1.0 255 0 0
0.02025 0.04668 0.39561 1.0 1.0 -0.0 255 0 0
0.01526 0.03853 0.39551 0.0 -1.0 -0.0 255 0 0
0.01784 0.03833 0.39533 0.0 -1.0 -0.0 255 0 0
0.01633 0.03804 0.39548 0.0 1.0 0.0 255 0 0
0.0217 0.04145 0.39567 1.0 -0.0 -1.0 255 0 0
0.01877 0.03858 0.3967 0.0 -1.0 0.0 255 0 0
0.01727 0.03866 0.39642 0.0 -1.0 -0.0 255 0 0
0.01634 0.03818 0.39622 0.0 -1.0 -0.0 255 0 0
0.01977 0.03918 0.39574 0.0 -1.0 -0.0 255 0 0
0.02131 0.03986 0.39646 1.0 -1.0 -1.0 255 0 0
0.0218 0.04029 0.39624 1.0 -1.0 -1.0 255 0 0
0.02001 0.04069 0.39653 1.0 -0.0 -1.0 255 0 0
0.01919 0.04109 0.39578 1.0 -0.0 -1.0 255 0 0
0.01949 0.0398 0.39666 1.0 -1.0 -1.0 255 0 0
0.02154 0.04546 0.39655 1.0 0.0 -0.0 255 0 0
0.02125 0.04065 0.39562 0.0 -0.0 -1.0 255 0 0
0.02071 0.04596 0.39561 1.0 1.0 -0.0 255 0 0
0.02233 0.04397 0.39585 1.0 0.0 -1.0 255 0 0
0.01817 0.03972 0.39563 1.0 -1.0 -1.0 255 0 0
0.02078 0.04164 0.39654 1.0 -0.0 -1.0 255 0 0
0.02113 0.04549 0.39594 1.0 0.0 -0.0 255 0 0
0.0223 0.04277 0.39594 1.0 -0.0 -1.0 255 0 0
0.01769 0.03831 0.39614 0.0 -1.0 -0.0 255 0 0
0.01858 0.03918 0.39677 1.0 -0.0 -1.0 255 0 0
0.02004 0.04263 0.39581 1.0 -0.0 -1.0 255 0 0
0.02272 0.0443 0.39643 1.0 0.0 -1.0 255 0 0
0.02135 0.04289 0.39651 1.0 -0.0 -1.0 255 0 0
0.01877 0.03969 0.39611 1.0 -1.0 -0.0 255 0 0
0.02098 0.04615 0.3967 1.0 1.0 -0.0 255 0 0
0.02136 0.04446 0.39614 1.0 0.0 -1.0 255 0 0
0.02177 0.04418 0.39659 1.0 -0.0 -1.0 255 0 0
0.02067 0.04378 0.39586 1.0 -0.0 -1.0 255 0 0
0.02089 0.04236 0.39634 0.0 -0.0 -1.0 255 0 0
0.01629 0.03877 0.39579 0.0 -1.0 -1.0 255 0 0
0.01893 0.0385 0.39598 0.0 -1.0 -0.0 255 0 0
0.02223 0.04116 0.39627 1.0 -0.0 -1.0 255 0 0
0.01705 0.03811 0.39546 0.0 -1.0 -0.0 255 0 0
0.02214 0.04541 0.39631 1.0 1.0 -0.0 255 0 0
0.02112 0.04357 0.39625 1.0 -0.0 -1.0 255 0 0
0.02011 0.04687 0.39636 1.0 1.0 -0.0 255 0 0
0.0208 0.03948 0.39614 1.0 -1.0 -0.0 255 0 0
0.02239 0.04206 0.39612 1.0 -0.0 -1.0 255 0 0
0.02146 0.04596 0.39567 1.0 1.0 -0.0 255 0 0
0.02076 0.04673 0.39664 1.0 1.0 -0.0 255 0 0
0.01941 0.04059 0.3962 1.0 -1.0 -1.0 255 0 0
0.02282 0.04247 0.39633 1.0 -0.0 -1.0 255 0 0
0.0207 0.04302 0.39612 1.0 -0.0 -1.0 255 0 0
0.02036 0.04208 0.39611 1.0 -0.0 -1.0 255 0 0
0.01573 0.03864 0.39616 0.0 -1.0 -0.0 255 0 0
0.01795 0.03898 0.39645 0.0 -1.0 -0.0 255 0 0
0.00495 0.04179 0.39021 1.0 0.0 -1.0 255 0 0
0.00471 0.03942 0.39009 1.0 -1.0 -0.0 255 0 0
0.00364 0.03903 0.38913 0.0 -1.0 -0.0 255 0 0
0.0044 0.04219 0.38988 1.0 0.0 -1.0 255 0 0
0.00282 0.03939 0.38389 1.0 -1.0 1.0 255 0 0
0.00513 0.04097 0.38933 1.0 0.0 0.0 255 0 0
0.00495 0.04157 0.38951 1.0 0.0 -0.0 255 0 0
0.00405 0.03908 0.38971 1.0 -1.0 -0.0 255 0 0
0.00499 0.04019 0.3896 1.0 -0.0 -0.0 255 0 0
0.00455 0.03971 0.38948 1.0 -1.0 0.0 255 0 0
0.00504 0.04045 0.38899 1.0 -0.0 0.0 255 0 0
0.00293 0.03921 0.38928 0.0 1.0 0.0 255 0 0
0.00479 0.04185 0.38869 1.0 1.0 -0.0 255 0 0
0.00172 0.04113 0.38897 1.0 -0.0 1.0 255 0 0
0.00223 0.04041 0.3888 1.0 0.0 0.0 255 0 0
0.00355 0.04227 0.38886 0.0 1.0 -0.0 255 0 0
0.00425 0.04201 0.38918 1.0 1.0 -0.0 255 0 0
0.00219 0.04112 0.38831 1.0 -0.0 0.0 255 0 0
0.00248 0.03967 0.38851 1.0 1.0 0.0 255 0 0
0.00471 0.03948 0.38878 1.0 -1.0 0.0 255 0 0
0.00361 0.04227 0.38814 0.0 -1.0 0.0 255 0 0
0.0044 0.03906 0.3883 0.0 -1.0 0.0 255 0 0
0.00295 0.03918 0.3883 0.0 1.0 -0.0 255 0 0
0.0036 0.03851 0.3874 0.0 1.0 -0.0 255 0 0
0.00524 0.04129 0.38822 1.0 0.0 0.0 255 0 0
0.00306 0.04047 0.38459 0.0 -1.0 1.0 255 0 0
0.00535 0.04052 0.38826 1.0 -0.0 0.0 255 0 0
0.00354 0.03881 0.38812 0.0 1.0 -0.0 255 0 0
0.00351 0.04209 0.38682 0.0 -1.0 0.0 255 0 0
0.00483 0.04193 0.38791 1.0 1.0 0.0 255 0 0
0.00243 0.04169 0.38794 1.0 -1.0 0.0 255 0 0
0.00211 0.04021 0.38769 1.0 0.0 0.0 255 0 0
0.00464 0.03896 0.38767 1.0 -1.0 0.0 255 0 0
0.00262 0.03918 0.38774 1.0 1.0 -0.0 255 0 0
0.0053 0.04148 0.38761 1.0 1.0 0.0 255 0 0
0.00445 0.03925 0.38393 1.0 0.0 -1.0 255 0 0
0.00234 0.04116 0.38749 1.0 -0.0 0.0 255 0 0
0.00349 0.03964 0.38374 0.0 1.0 -1.0 255 0 0
0.00549 0.04062 0.38745 1.0 0.0 0.0 255 0 0
0.00424 0.04212 0.3867 0.0 1.0 -0.0 255 0 0
0.00538 0.04002 0.38773 1.0 -0.0 0.0 255 0 0
0.00518 0.03941 0.38749 1.0 -1.0 0.0 255 0 0
0.00406 0.03985 0.38386 0.0 0.0 -1.0 255 0 0
0.00424 0.04222 0.38761 0.0 1.0 -0.0 255 0 0
0.00299 0.04222 0.38845 0.0 -1.0 1.0 255 0 0
0.00544 0.03985 0.38678 1.0 -0.0 -0.0 255 0 0
0.00256 0.0417 0.38706 1.0 -1.0 0.0 255 0 0
0.00465 0.03873 0.38673 1.0 -1.0 0.0 255 0 0
0.00225 0.04003 0.38695 1.0 -0.0 0.0 255 0 0
0.00236 0.03929 0.38692 1.0 0.0 -0.0 255 0 0
0.00239 0.04066 0.38681 1.0 -0.0 0.0 255 0 0
0.0029 0.03859 0.38693 1.0 1.0 -0.0 255 0 0
0.0054 0.0412 0.38698 1.0 0.0 -0.0 255 0 0
0.00357 0.03824 0.38678 0.0 1.0 -1.0 255 0 0
0.00228 0.03911 0.38625 1.0 0.0 -0.0 255 0 0
0.00486 0.04189 0.38673 0.0 1.0 -0.0 255 0 0
0.00261 0.04113 0.38633 1.0 -1.0 0.0 255 0 0
0.00549 0.04024 0.38627 1.0 0.0 -0.0 255 0 0
0.00434 0.04036 0.38432 0.0 1.0 -1.0 255 0 0
0.00345 0.03776 0.38625 0.0 1.0 -1.0 255 0 0
0.00302 0.04171 0.38644 0.0 -1.0 0.0 255 0 0
0.0052 0.04153 0.38626 1.0 1.0 -0.0 255 0 0
0.00433 0.03831 0.38623 1.0 -1.0 0.0 255 0 0
0.00233 0.0383 0.38593 1.0 0.0 -0.0 255 0 0
0.00366 0.04154 0.38602 0.0 -1.0 0.0 255 0 0
0.00225 0.04028 0.38602 1.0 -0.0 0.0 255 0 0
0.00516 0.0392 0.38602 1.0 -0.0 -0.0 255 0 0
0.00485 0.03868 0.38438 1.0 -0.0 -0.0 255 0 0
0.00469 0.04126 0.38574 1.0 1.0 -0.0 255 0 0
0.00242 0.03977 0.38473 1.0 -0.0 0.0 255 0 0
0.00402 0.04129 0.38547 0.0 1.0 -1.0 255 0 0
0.00505 0.03957 0.38475 1.0 0.0 -1.0 255 0 0
0.00473 0.04059 0.38478 1.0 0.0 -1.0 255 0 0
0.00377 0.0407 0.38447 0.0 -1.0 1.0 255 0 0
0.00292 0.04109 0.38549 1.0 -1.0 0.0 255 0 0
0.00477 0.03815 0.38546 1.0 -0.0 0.0 255 0 0
0.00248 0.0403 0.38524 1.0 -1.0 0.0 255 0 0
0.00543 0.04063 0.38521 1.0 0.0 -0.0 255 0 0
0.00216 0.03974 0.38558 1.0 -0.0 0.0 255 0 0
0.00203 0.03901 0.38516 1.0 0.0 0.0 255 0 0
0.00508 0.03887 0.38518 1.0 -0.0 -0.0 255 0 0
0.00201 0.03232 0.39475 1.0 -0.0 0.0 255 0 0
0.00221 0.03321 0.39441 1.0 -0.0 0.0 255 0 0
-0.00084 0.03321 0.39442 1.0 0.0 0.0 255 0 0
0.00323 0.03615 0.39445 1.0 -0.0 1.0 255 0 0
9e-05 0.03666 0.39461 1.0 -1.0 0.0 255 0 0
-0.00036 0.03405 0.39834 0.0 1.0 -1.0 255 0 0
-0.00095 0.03542 0.39868 0.0 -1.0 -1.0 255 0 0
0.00306 0.035 0.39452 1.0 -0.0 0.0 255 0 0
0.00333 0.03499 0.39382 1.0 -0.0 -0.0 255 0 0
-0.00037 0.03513 0.39875 0.0 0.0 1.0 255 0 0
-1e-05 0.03315 0.39723 0.0 -1.0 1.0 255 0 0
-0.00156 0.03518 0.39849 1.0 -0.0 -1.0 255 0 0
0.00296 0.0344 0.39393 1.0 -1.0 -0.0 255 0 0
9e-05 0.0309 0.39394 1.0 1.0 0.0 255 0 0
0.00134 0.03001 0.39317 0.0 1.0 0.0 255 0 0
-0.00127 0.03287 0.39398 1.0 0.0 0.0 255 0 0
-0.00044 0.03537 0.39424 1.0 -0.0 0.0 255 0 0
-0.00073 0.03456 0.39878 0.0 0.0 -1.0 255 0 0
0.00038 0.03374 0.39796 0.0 -1.0 1.0 255 0 0
0.00061 0.03728 0.39392 1.0 -0.0 -0.0 255 0 0
0.00247 0.03518 0.39464 1.0 -0.0 0.0 255 0 0
-0.0002 0.03591 0.39401 1.0 -0.0 0.0 255 0 0
0.00218 0.03199 0.39407 1.0 0.0 0.0 255 0 0
-0.00113 0.03365 0.39406 1.0 -0.0 0.0 255 0 0
0.0026 0.03642 0.39462 1.0 0.0 1.0 255 0 0
0.00258 0.03105 0.39437 1.0 -0.0 1.0 255 0 0
0.00208 0.037 0.39456 0.0 0.0 1.0 255 0 0
0.00227 0.0313 0.39386 1.0 -0.0 -0.0 255 0 0
-0.00093 0.03593 0.3977 0.0 -1.0 -0.0 255 0 0
0.00069 0.03044 0.39391 0.0 1.0 -0.0 255 0 0
0.00239 0.03406 0.3939 1.0 -0.0 -0.0 255 0 0
0.00243 0.03052 0.39405 1.0 -1.0 1.0 255 0 0
0.00185 0.03307 0.39352 1.0 -0.0 -1.0 255 0 0
-0.00089 0.03476 0.3947 1.0 -0.0 0.0 255 0 0
0.00251 0.03454 0.39342 1.0 -1.0 -1.0 255 0 0
-0.00069 0.03454 0.39359 1.0 -0.0 1.0 255 0 0
0.00261 0.03424 0.39457 1.0 -1.0 0.0 255 0 0
0.0018 0.0318 0.39327 1.0 0.0 -1.0 255 0 0
0.00194 0.02999 0.39335 0.0 -1.0 -0.0 255 0 0
-0.00094 0.03222 0.39369 1.0 0.0 0.0 255 0 0
-0.00019 0.03496 0.39329 1.0 -0.0 1.0 255 0 0
-0.0002 0.03419 0.39314 1.0 -0.0 1.0 255 0 0
0.00191 0.03433 0.39329 1.0 -1.0 -1.0 255 0 0
-0.00092 0.03388 0.39345 1.0 -0.0 1.0 255 0 0
-0.00012 0.03526 0.39815 0.0 0.0 1.0 255 0 0
0.00087 0.03416 0.39795 1.0 -0.0 1.0 255 0 0
0.00133 0.03261 0.39312 1.0 0.0 -1.0 255 0 0
0.00103 0.0347 0.39299 0.0 0.0 1.0 255 0 0
0.00048 0.034 0.39302 0.0 -0.0 1.0 255 0 0
-0.00067 0.03338 0.39309 1.0 -0.0 1.0 255 0 0
-0.00082 0.0326 0.39299 1.0 -0.0 1.0 255 0 0
0.00021 0.03627 0.39338 1.0 -0.0 0.0 255 0 0
0.00023 0.03539 0.39316 1.0 0.0 1.0 255 0 0
0.00144 0.03355 0.39319 1.0 -0.0 -1.0 255 0 0
0.00074 0.03224 0.39272 0.0 0.0 -1.0 255 0 0
-0.00082 0.03389 0.39462 1.0 -0.0 0.0 255 0 0
-0.00054 0.03162 0.39357 1.0 0.0 0.0 255 0 0
0.00078 0.03041 0.39272 0.0 1.0 1.0 255 0 0
0.0 0.03339 0.39291 0.0 -0.0 1.0 255 0 0
0.00249 0.03036 0.39323 1.0 -0.0 -0.0 255 0 0
0.0005 0.03296 0.39287 0.0 -0.0 1.0 255 0 0
0.00219 0.03096 0.39305 1.0 0.0 -1.0 255 0 0
-0.00153 0.03463 0.39815 1.0 0.0 -1.0 255 0 0
-0.00075 0.03369 0.39769 0.0 1.0 -1.0 255 0 0
0.00066 0.03261 0.3964 0.0 -1.0 1.0 255 0 0
-0.00142 0.03405 0.39721 1.0 1.0 -0.0 255 0 0
0.0007 0.03673 0.39641 0.0 -1.0 -1.0 255 0 0
-0.00016 0.03605 0.39741 0.0 1.0 1.0 255 0 0
0.00133 0.03188 0.39289 0.0 0.0 -1.0 255 0 0
0.00228 0.03501 0.3929 0.0 -1.0 -1.0 255 0 0
-0.00087 0.03555 0.39512 1.0 -0.0 0.0 255 0 0
-0.00174 0.03539 0.39785 1.0 -0.0 -1.0 255 0 0
-0.00021 0.03212 0.39258 1.0 0.0 1.0 255 0 0
-0.00027 0.03148 0.3929 1.0 0.0 1.0 255 0 0
0.00169 0.03019 0.39255 1.0 -0.0 -1.0 255 0 0
0.00205 0.03627 0.395 1.0 0.0 1.0 255 0 0
0.00141 0.03521 0.39279 0.0 1.0 1.0 255 0 0
0.00088 0.03747 0.39489 1.0 -1.0 -1.0 255 0 0
0.00089 0.03067 0.39457 0.0 1.0 -1.0 255 0 0
0.00131 0.03017 0.39386 0.0 -1.0 0.0 255 0 0
-0.00062 0.03216 0.39446 1.0 1.0 -0.0 255 0 0
0.00199 0.03096 0.39481 1.0 -1.0 1.0 255 0 0
-0.00191 0.03505 0.39655 1.0 -0.0 0.0 255 0 0
-0.00036 0.03603 0.39478 1.0 -1.0 0.0 255 0 0
0.00072 0.03107 0.39234 0.0 0.0 1.0 255 0 0
0.00139 0.03075 0.39228 0.0 -0.0 -1.0 255 0 0
0.00199 0.0343 0.39508 1.0 -0.0 0.0 255 0 0
0.00192 0.03339 0.39502 1.0 -0.0 0.0 255 0 0
-0.00178 0.03543 0.39718 1.0 -1.0 -0.0 255 0 0
0.0004 0.03498 0.39788 1.0 0.0 1.0 255 0 0
0.00046 0.0356 0.39717 0.0 1.0 1.0 255 0 0
-0.00183 0.03474 0.39747 1.0 0.0 -0.0 255 0 0
-0.0016 0.03513 0.3957 1.0 -0.0 0.0 255 0 0
-0.00075 0.0363 0.39699 0.0 -1.0 -0.0 255 0 0
8e-05 0.03669 0.39675 0.0 -1.0 -1.0 255 0 0
0.00083 0.03484 0.39742 1.0 0.0 1.0 255 0 0
0.00146 0.03307 0.39618 1.0 -0.0 1.0 255 0 0
-0.00088 0.03334 0.3952 1.0 0.0 -0.0 255 0 0
0.00134 0.03206 0.39557 0.0 -0.0 1.0 255 0 0
0.00189 0.03172 0.39502 1.0 -0.0 1.0 255 0 0
0.00011 0.03235 0.39601 0.0 1.0 -1.0 255 0 0
-0.00076 0.03322 0.39676 1.0 1.0 -0.0 255 0 0
0.00095 0.03606 0.39658 1.0 1.0 1.0 255 0 0
0.00014 0.03702 0.39518 1.0 -1.0 -0.0 255 0 0
-0.00097 0.03599 0.39577 1.0 -1.0 0.0 255 0 0
0.00172 0.03587 0.39595 1.0 0.0 1.0 255 0 0
0.00179 0.03675 0.39538 0.0 -0.0 1.0 255 0 0
0.0013 0.03691 0.39596 1.0 -0.0 1.0 255 0 0
-0.0011 0.03603 0.39655 1.0 -1.0 0.0 255 0 0
0.00199 0.0353 0.3955 1.0 0.0 1.0 255 0 0
0.00082 0.03332 0.39725 0.0 -1.0 1.0 255 0 0
-5e-05 0.03145 0.39473 1.0 1.0 -0.0 255 0 0
-0.00154 0.03429 0.3955 1.0 0.0 0.0 255 0 0
-0.0001 0.03276 0.39653 0.0 1.0 -1.0 255 0 0
0.0019 0.03456 0.39572 1.0 -0.0 0.0 255 0 0
0.00142 0.03443 0.39686 1.0 0.0 1.0 255 0 0
0.00151 0.0336 0.39674 1.0 -0.0 1.0 255 0 0
-0.00159 0.0343 0.39613 1.0 0.0 0.0 255 0 0
-0.00068 0.03276 0.39553 1.0 1.0 -0.0 255 0 0
-0.00025 0.03214 0.39544 1.0 1.0 -0.0 255 0 0
0.00092 0.03108 0.39502 0.0 -1.0 1.0 255 0 0
0.00162 0.03278 0.39563 1.0 -0.0 1.0 255 0 0
-0.00095 0.03324 0.39595 1.0 1.0 -0.0 255 0 0
0.00085 0.03166 0.39548 0.0 -1.0 1.0 255 0 0
0.00133 0.03534 0.39651 1.0 0.0 1.0 255 0 0
-0.00139 0.03557 0.39611 1.0 -1.0 0.0 255 0 0
-0.00045 0.03675 0.39602 0.0 -1.0 -0.0 255 0 0
0.00173 0.03414 0.39636 1.0 -0.0 0.0 255 0 0
0.00013 0.03713 0.39596 1.0 -1.0 -0.0 255 0 0
-0.00994 0.04367 0.37554 0.0 -1.0 -1.0 255 0 0
-0.01232 0.04275 0.37552 0.0 -1.0 -0.0 255 0 0
-0.01102 0.04383 0.37573 0.0 -1.0 -1.0 255 0 0
-0.00955 0.0442 0.37571 0.0 -1.0 -1.0 255 0 0
-0.01168 0.04345 0.37565 0.0 -1.0 -1.0 255 0 0
-0.0133 0.04203 0.37595 0.0 -1.0 -0.0 255 0 0
-0.01244 0.04215 0.37593 0.0 -1.0 -1.0 255 0 0
-0.00896 0.04382 0.37603 1.0 -1.0 -0.0 255 0 0
-0.01073 0.04285 0.37606 0.0 -1.0 -0.0 255 0 0
-0.0099 0.04303 0.37636 0.0 -1.0 -0.0 255 0 0
-0.01162 0.04306 0.37632 0.0 -1.0 -0.0 255 0 0
-0.01172 0.04219 0.37629 0.0 -1.0 -1.0 255 0 0
-0.01314 0.0416 0.37651 0.0 -1.0 -1.0 255 0 0
-0.01365 0.04207 0.37652 0.0 -1.0 -0.0 255 0 0
-0.01238 0.04188 0.37656 0.0 -1.0 -0.0 255 0 0
-0.00928 0.0433 0.37657 1.0 -1.0 -0.0 255 0 0
-0.01091 0.04314 0.37662 0.0 -1.0 -0.0 255 0 0
-0.01083 0.04228 0.37679 0.0 -1.0 -0.0 255 0 0
-0.00947 0.04394 0.37659 1.0 -1.0 -0.0 255 0 0
-0.01393 0.04104 0.37654 0.0 -1.0 -1.0 255 0 0
-0.0096 0.04285 0.37689 1.0 -1.0 -0.0 255 0 0
-0.01022 0.04239 0.37722 0.0 -1.0 -0.0 255 0 0
-0.00861 0.04368 0.3769 1.0 -1.0 -0.0 255 0 0
-0.00797 0.0443 0.377 1.0 -1.0 -0.0 255 0 0
-0.00986 0.04342 0.37722 0.0 -1.0 -0.0 255 0 0
-0.00901 0.04312 0.37727 1.0 -1.0 -0.0 255 0 0
-0.01259 0.04139 0.37715 1.0 -1.0 -1.0 255 0 0
-0.00877 0.0444 0.37671 1.0 -1.0 -0.0 255 0 0
-0.01312 0.0409 0.37691 1.0 -1.0 -0.0 255 0 0
-0.01214 0.0423 0.37713 0.0 -1.0 -0.0 255 0 0
-0.01421 0.04078 0.37712 1.0 -1.0 -0.0 255 0 0
-0.01287 0.04206 0.37729 1.0 -1.0 -0.0 255 0 0
-0.01049 0.04307 0.37712 0.0 -1.0 -0.0 255 0 0
-0.01092 0.04268 0.37771 0.0 -1.0 -0.0 255 0 0
-0.01168 0.04174 0.37755 1.0 -1.0 -0.0 255 0 0
-0.01384 0.04058 0.37759 1.0 -0.0 -1.0 255 0 0
-0.0116 0.04243 0.37758 0.0 -1.0 -0.0 255 0 0
-0.01055 0.04213 0.37774 0.0 -1.0 -0.0 255 0 0
-0.00901 0.04399 0.37756 1.0 -1.0 -0.0 255 0 0
-0.01418 0.03952 0.3777 1.0 -1.0 -1.0 255 0 0
-0.00833 0.0447 0.37763 1.0 -1.0 -0.0 255 0 0
-0.01295 0.04031 0.3776 1.0 -1.0 -1.0 255 0 0
-0.01357 0.03978 0.37766 1.0 -1.0 -1.0 255 0 0
-0.01413 0.0389 0.37797 1.0 -0.0 -1.0 255 0 0
-0.00746 0.04474 0.37783 1.0 -0.0 -0.0 255 0 0
-0.00962 0.0426 0.37772 0.0 -1.0 -0.0 255 0 0
-0.0078 0.04418 0.37782 1.0 -1.0 -0.0 255 0 0
-0.00785 0.04522 0.37742 1.0 -0.0 -0.0 255 0 0
-0.01318 0.04095 0.37787 1.0 -1.0 -1.0 255 0 0
-0.01212 0.04116 0.37791 1.0 -1.0 -0.0 255 0 0
-0.00962 0.04339 0.37811 1.0 -1.0 -0.0 255 0 0
-0.00947 0.04285 0.38053 1.0 -1.0 0.0 255 0 0
-0.01271 0.0417 0.37802 1.0 -1.0 -0.0 255 0 0
-0.01094 0.04265 0.37834 0.0 -1.0 -0.0 255 0 0
-0.00813 0.0448 0.37823 1.0 -1.0 -0.0 255 0 0
-0.01101 0.04194 0.37819 1.0 -1.0 -0.0 255 0 0
-0.00823 0.04355 0.37819 1.0 -1.0 -0.0 255 0 0
-0.012 0.04041 0.37878 1.0 -1.0 -0.0 255 0 0
-0.01309 0.03929 0.37836 1.0 -0.0 -1.0 255 0 0
-0.00704 0.04522 0.3785 1.0 -1.0 -0.0 255 0 0
-0.01333 0.04015 0.37846 1.0 -1.0 -1.0 255 0 0
-0.01033 0.04295 0.37855 1.0 -1.0 0.0 255 0 0
-0.01377 0.03956 0.37849 1.0 -0.0 -1.0 255 0 0
-0.01227 0.04204 0.37829 1.0 -1.0 -0.0 255 0 0
-0.01168 0.04117 0.37859 1.0 -1.0 -0.0 255 0 0
-0.01364 0.03853 0.37858 1.0 -0.0 -1.0 255 0 0
-0.00921 0.04368 0.37878 1.0 -1.0 0.0 255 0 0
-0.00758 0.04556 0.37815 1.0 -1.0 -0.0 255 0 0
-0.00691 0.04583 0.37892 1.0 -1.0 -0.0 255 0 0
-0.00967 0.0425 0.37836 0.0 -1.0 -0.0 255 0 0
-0.01418 0.03839 0.37891 1.0 -0.0 -1.0 255 0 0
-0.01289 0.04086 0.37852 1.0 -1.0 -1.0 255 0 0
-0.00783 0.044 0.37864 1.0 -1.0 -0.0 255 0 0
-0.00832 0.0445 0.37893 1.0 -1.0 -0.0 255 0 0
-0.0111 0.04174 0.37913 1.0 -1.0 -0.0 255 0 0
-0.01262 0.03956 0.37869 1.0 -0.0 -1.0 255 0 0
-0.01041 0.04216 0.37852 1.0 -1.0 -0.0 255 0 0
-0.0091 0.0428 0.37894 1.0 -1.0 0.0 255 0 0
-0.01354 0.03905 0.37915 1.0 -0.0 -1.0 255 0 0
-0.0128 0.0389 0.37906 1.0 -0.0 -1.0 255 0 0
-0.00777 0.04519 0.37897 1.0 -1.0 -0.0 255 0 0
-0.00831 0.04339 0.37919 1.0 -1.0 -0.0 255 0 0
-0.01229 0.03944 0.37928 1.0 -0.0 -0.0 255 0 0
-0.01385 0.03781 0.37928 1.0 -1.0 -1.0 255 0 0
-0.01135 0.04252 0.37909 1.0 -1.0 -0.0 255 0 0
-0.01305 0.04001 0.37902 1.0 -0.0 -1.0 255 0 0
-0.01311 0.0382 0.37938 1.0 -0.0 -1.0 255 0 0
-0.00977 0.04335 0.37944 0.0 -1.0 0.0 255 0 0
-0.01211 0.04176 0.37922 1.0 -1.0 -0.0 255 0 0
-0.0074 0.04446 0.37912 1.0 -1.0 -0.0 255 0 0
-0.01039 0.04298 0.37928 1.0 -1.0 0.0 255 0 0
-0.00698 0.0451 0.37919 1.0 -1.0 -0.0 255 0 0
-0.01146 0.04088 0.37926 1.0 -1.0 -0.0 255 0 0
-0.00743 0.04438 0.37975 1.0 -1.0 0.0 255 0 0
-0.0092 0.04284 0.37979 1.0 -1.0 0.0 255 0 0
-0.01248 0.04061 0.3795 1.0 -0.0 -0.0 255 0 0
-0.01186 0.03991 0.37954 1.0 -0.0 -0.0 255 0 0
-0.01302 0.03935 0.37967 1.0 -0.0 -1.0 255 0 0
-0.00665 0.04563 0.37957 1.0 -1.0 -0.0 255 0 0
-0.01257 0.03994 0.37996 1.0 -0.0 -0.0 255 0 0
-0.01092 0.04298 0.38047 1.0 -1.0 0.0 255 0 0
-0.01041 0.04313 0.37999 1.0 -1.0 0.0 255 0 0
-0.00759 0.04539 0.37967 1.0 -1.0 -0.0 255 0 0
-0.00876 0.04405 0.37955 1.0 -1.0 0.0 255 0 0
-0.00642 0.0465 0.38094 1.0 -1.0 0.0 255 0 0
-0.00871 0.0442 0.38037 1.0 -1.0 0.0 255 0 0
-0.00689 0.04515 0.37998 1.0 -1.0 -0.0 255 0 0
-0.01165 0.04231 0.37982 1.0 -1.0 -0.0 255 0 0
-0.01325 0.03876 0.37984 1.0 -0.0 -0.0 255 0 0
-0.0121 0.03914 0.37994 1.0 -0.0 -0.0 255 0 0
-0.01332 0.03743 0.38023 1.0 -0.0 -0.0 255 0 0
-0.01034 0.04233 0.37969 1.0 -1.0 0.0 255 0 0
-0.00896 0.04315 0.38083 1.0 -1.0 0.0 255 0 0
-0.01292 0.03795 0.37995 1.0 -1.0 -0.0 255 0 0
-0.01248 0.03855 0.37998 1.0 -0.0 -0.0 255 0 0
-0.01209 0.04113 0.37984 1.0 -0.0 -0.0 255 0 0
-0.0137 0.0379 0.37986 1.0 -0.0 -0.0 255 0 0
-0.01076 0.04162 0.38032 1.0 -1.0 -0.0 255 0 0
-0.00788 0.04499 0.38022 1.0 -1.0 0.0 255 0 0
-0.00781 0.0439 0.38011 1.0 -1.0 -0.0 255 0 0
-0.01126 0.04043 0.38028 1.0 -0.0 -0.0 255 0 0
-0.00787 0.04388 0.3809 1.0 -1.0 0.0 255 0 0
-0.0122 0.04036 0.38041 1.0 -0.0 -0.0 255 0 0
-0.01155 0.03974 0.38045 1.0 -0.0 -0.0 255 0 0
-0.01194 0.041 0.38045 1.0 -0.0 -0.0 255 0 0
-0.01027 0.04242 0.38035 1.0 -1.0 0.0 255 0 0
-0.00936 0.04383 0.38053 0.0 -1.0 0.0 255 0 0
-0.00994 0.04343 0.38032 1.0 -1.0 0.0 255 0 0
-0.01132 0.0426 0.38078 1.0 -1.0 -0.0 255 0 0
-0.0067 0.04534 0.38063 1.0 -1.0 -0.0 255 0 0
-0.01167 0.04179 0.38052 1.0 -0.0 -0.0 255 0 0
-0.01258 0.03778 0.38061 1.0 -0.0 -0.0 255 0 0
-0.01263 0.03888 0.3809 1.0 -0.0 -0.0 255 0 0
-0.01167 0.03913 0.38106 1.0 -0.0 -0.0 255 0 0
-0.00636 0.04583 0.38083 1.0 -1.0 -0.0 255 0 0
-0.00852 0.04326 0.38002 1.0 -1.0 0.0 255 0 0
-0.00745 0.04434 0.38134 1.0 -1.0 0.0 255 0 0
-0.00749 0.04549 0.38077 1.0 -1.0 0.0 255 0 0
-0.01097 0.04069 0.38096 1.0 -0.0 -0.0 255 0 0
-0.01046 0.04209 0.38101 1.0 -1.0 -0.0 255 0 0
-0.01309 0.03753 0.38097 1.0 -0.0 -0.0 255 0 0
-0.01229 0.03952 0.38112 1.0 -0.0 -0.0 255 0 0
-0.01271 0.03806 0.38146 1.0 -0.0 -0.0 255 0 0
-0.00833 0.04462 0.38112 1.0 -1.0 0.0 255 0 0
-0.01165 0.04142 0.38104 1.0 -0.0 -0.0 255 0 0
-0.00707 0.04602 0.38114 1.0 -1.0 0.0 255 0 0
-0.01135 0.03974 0.38104 1.0 -0.0 -0.0 255 0 0
-0.00704 0.04482 0.38105 1.0 -1.0 0.0 255 0 0
-0.00664 0.04537 0.38132 1.0 -1.0 -0.0 255 0 0
-0.00603 0.04477 0.39234 0.0 1.0 -1.0 255 0 0
-0.0039 0.04437 0.39167 0.0 -1.0 -0.0 255 0 0
-0.01193 0.03848 0.38127 1.0 -0.0 -0.0 255 0 0
-0.00676 0.0463 0.38165 1.0 -1.0 0.0 255 0 0
-0.01256 0.03766 0.38197 1.0 -0.0 -0.0 255 0 0
-0.00835 0.04368 0.38176 1.0 -1.0 0.0 255 0 0
-0.01204 0.04 0.38147 1.0 -0.0 -0.0 255 0 0
-0.01182 0.04072 0.38139 1.0 -0.0 -0.0 255 0 0
-0.01141 0.04201 0.38148 1.0 -0.0 -0.0 255 0 0
-0.00646 0.04434 0.39191 0.0 1.0 -1.0 255 0 0
-0.01236 0.03753 0.3813 1.0 -0.0 -0.0 255 0 0
-0.01185 0.03812 0.38192 1.0 -0.0 -0.0 255 0 0
-0.00338 0.04492 0.39163 1.0 -0.0 -1.0 255 0 0
-0.01012 0.04265 0.38139 1.0 -1.0 0.0 255 0 0
-0.00691 0.04534 0.39187 1.0 -0.0 -1.0 255 0 0
-0.00474 0.04388 0.39138 0.0 -1.0 0.0 255 0 0
-0.0046 0.0442 0.39202 0.0 -1.0 0.0 255 0 0
-0.00892 0.04421 0.38099 1.0 -1.0 0.0 255 0 0
-0.00545 0.0439 0.39164 0.0 -1.0 0.0 255 0 0
-0.00662 0.0466 0.3918 1.0 -1.0 -0.0 255 0 0
-0.00464 0.04723 0.39166 0.0 1.0 -0.0 255 0 0
-0.00557 0.04725 0.39147 0.0 -1.0 -0.0 255 0 0
-0.00702 0.04427 0.39156 0.0 0.0 -1.0 255 0 0
-0.01086 0.04316 0.38146 1.0 -1.0 0.0 255 0 0
-0.01032 0.04365 0.38184 1.0 -1.0 0.0 255 0 0
-0.0098 0.04377 0.3812 1.0 -1.0 0.0 255 0 0
-0.00669 0.04676 0.39111 1.0 -1.0 -0.0 255 0 0
-0.01104 0.04276 0.382 1.0 -1.0 -0.0 255 0 0
-0.00758 0.04547 0.38206 1.0 -1.0 0.0 255 0 0
-0.01055 0.0414 0.38164 1.0 -0.0 -0.0 255 0 0
-0.00357 0.04552 0.39116 1.0 0.0 -0.0 255 0 0
-0.00681 0.04339 0.39135 0.0 1.0 -1.0 255 0 0
-0.00602 0.04678 0.38186 1.0 -1.0 -0.0 255 0 0
-0.00731 0.04563 0.39129 1.0 -0.0 -1.0 255 0 0
-0.00731 0.04479 0.3914 1.0 0.0 -1.0 255 0 0
-0.00367 0.0464 0.39137 1.0 0.0 -0.0 255 0 0
-0.01148 0.03907 0.38206 1.0 -0.0 -0.0 255 0 0
-0.00748 0.04362 0.39107 1.0 0.0 -1.0 255 0 0
-0.01075 0.04083 0.38185 1.0 -0.0 -0.0 255 0 0
-0.00596 0.04353 0.39134 0.0 -1.0 1.0 255 0 0
-0.00525 0.04359 0.39105 0.0 -1.0 0.0 255 0 0
-0.00938 0.04317 0.38176 1.0 -1.0 0.0 255 0 0
-0.00435 0.04703 0.39113 1.0 1.0 -0.0 255 0 0
-0.00622 0.04587 0.38191 1.0 -1.0 -0.0 255 0 0
-0.00782 0.04425 0.39088 1.0 0.0 -1.0 255 0 0
-0.00599 0.04631 0.38141 1.0 -1.0 -0.0 255 0 0
-0.01162 0.04104 0.38206 1.0 -0.0 -0.0 255 0 0
-0.00711 0.04593 0.38217 1.0 -1.0 0.0 255 0 0
-0.00753 0.0428 0.39089 0.0 0.0 -1.0 255 0 0
-0.00382 0.04623 0.39074 1.0 0.0 -0.0 255 0 0
-0.00776 0.04536 0.3907 1.0 -0.0 -0.0 255 0 0
-0.00373 0.04445 0.39072 1.0 -1.0 -0.0 255 0 0
-0.00686 0.04356 0.38994 0.0 1.0 -0.0 255 0 0
-0.00679 0.04676 0.39034 1.0 -1.0 -0.0 255 0 0
-0.00814 0.04325 0.39048 1.0 -0.0 -1.0 255 0 0
-0.01224 0.03905 0.38201 1.0 -0.0 -0.0 255 0 0
-0.01177 0.04041 0.38223 1.0 -0.0 -0.0 255 0 0
-0.00817 0.04449 0.39045 1.0 0.0 -1.0 255 0 0
-0.00998 0.04267 0.38222 1.0 -1.0 0.0 255 0 0
-0.00408 0.04402 0.3902 1.0 -1.0 -0.0 255 0 0
-0.0068 0.04308 0.39056 0.0 1.0 -0.0 255 0 0
-0.00589 0.04718 0.39077 0.0 -1.0 0.0 255 0 0
-0.0045 0.04702 0.39029 1.0 1.0 -0.0 255 0 0
-0.00521 0.04715 0.38909 0.0 1.0 0.0 255 0 0
-0.00932 0.04413 0.38157 1.0 -1.0 0.0 255 0 0
-0.01204 0.03934 0.38255 1.0 -0.0 -0.0 255 0 0
-0.01093 0.04027 0.38217 1.0 -0.0 -0.0 255 0 0
-0.00424 0.04636 0.39013 1.0 0.0 -0.0 255 0 0
-0.0108 0.0431 0.38254 1.0 -1.0 -0.0 255 0 0
-0.00565 0.04714 0.38968 0.0 1.0 -0.0 255 0 0
-0.00461 0.04368 0.39043 1.0 -1.0 0.0 255 0 0
-0.01125 0.04202 0.38236 1.0 -0.0 -0.0 255 0 0
-0.00381 0.04527 0.39024 1.0 0.0 -0.0 255 0 0
-0.00843 0.04373 0.39024 1.0 0.0 -1.0 255 0 0
-0.00856 0.04212 0.39011 1.0 -0.0 -1.0 255 0 0
-0.00838 0.04476 0.38212 1.0 -1.0 0.0 255 0 0
-0.00627 0.04334 0.38997 0.0 -1.0 -0.0 255 0 0
-0.01165 0.03763 0.3837 1.0 -0.0 -0.0 255 0 0
-0.00884 0.04161 0.38976 1.0 -0.0 -0.0 255 0 0
-0.00864 0.04289 0.38999 1.0 -0.0 -1.0 255 0 0
-0.00382 0.04477 0.3897 1.0 -0.0 -0.0 255 0 0
-0.0105 0.04124 0.3824 1.0 -0.0 -0.0 255 0 0
-0.00858 0.04453 0.38978 1.0 -0.0 -0.0 255 0 0
-0.00817 0.04522 0.38998 1.0 -0.0 -0.0 255 0 0
-0.00781 0.0424 0.39009 1.0 -1.0 -0.0 255 0 0
-0.01008 0.04209 0.3829 1.0 -0.0 -0.0 255 0 0
-0.00512 0.046 0.38994 1.0 1.0 -0.0 255 0 0
-0.00902 0.04446 0.38236 1.0 -1.0 0.0 255 0 0
-0.00657 0.04537 0.38254 1.0 -1.0 -0.0 255 0 0
-0.00669 0.04639 0.38238 1.0 -1.0 -0.0 255 0 0
-0.01116 0.03969 0.38244 1.0 -0.0 -0.0 255 0 0
-0.0045 0.04561 0.38976 1.0 0.0 -0.0 255 0 0
-0.00735 0.04638 0.38999 1.0 -1.0 -0.0 255 0 0
-0.00938 0.0433 0.38244 1.0 -1.0 -0.0 255 0 0
-0.00902 0.04236 0.38956 1.0 -0.0 -1.0 255 0 0
-0.01227 0.03835 0.38247 1.0 -0.0 -0.0 255 0 0
-0.00518 0.0434 0.38999 0.0 -1.0 0.0 255 0 0
-0.00808 0.04508 0.38261 1.0 -1.0 0.0 255 0 0
-0.00757 0.04349 0.38972 0.0 -1.0 -0.0 255 0 0
-0.00667 0.04681 0.38965 0.0 -1.0 0.0 255 0 0
-0.00793 0.0458 0.38961 1.0 -0.0 -0.0 255 0 0
-0.00579 0.04632 0.38258 1.0 -1.0 -0.0 255 0 0
-0.00887 0.04379 0.38963 1.0 -0.0 -0.0 255 0 0
-0.01106 0.04238 0.38285 1.0 -0.0 -0.0 255 0 0
-0.00725 0.04459 0.38272 1.0 -1.0 0.0 255 0 0
-0.01213 0.03731 0.38254 1.0 -0.0 -0.0 255 0 0
-0.00882 0.04354 0.38222 1.0 -1.0 0.0 255 0 0
-0.01164 0.03754 0.38297 1.0 -0.0 -0.0 255 0 0
-0.00439 0.047 0.38952 1.0 1.0 -0.0 255 0 0
-0.0099 0.04401 0.3825 1.0 -1.0 0.0 255 0 0
-0.00809 0.04268 0.3895 1.0 -0.0 -1.0 255 0 0
-0.00956 0.04055 0.38865 1.0 -0.0 -0.0 255 0 0
-0.0115 0.04112 0.38282 1.0 -0.0 -0.0 255 0 0
-0.00464 0.04374 0.3886 1.0 -0.0 -0.0 255 0 0
-0.01073 0.0406 0.38277 1.0 -0.0 -0.0 255 0 0
-0.00778 0.04433 0.38378 1.0 -1.0 0.0 255 0 0
-0.00408 0.04435 0.38915 1.0 -0.0 -0.0 255 0 0
-0.00742 0.044 0.38931 1.0 1.0 1.0 255 0 0
-0.00851 0.04506 0.3893 1.0 -0.0 -0.0 255 0 0
-0.00462 0.04365 0.38976 1.0 -1.0 -0.0 255 0 0
-0.00933 0.04119 0.38932 1.0 -0.0 -1.0 255 0 0
-0.01206 0.03877 0.38304 1.0 -0.0 -0.0 255 0 0
-0.00439 0.04502 0.3891 1.0 0.0 -1.0 255 0 0
-0.00636 0.04689 0.3888 0.0 -1.0 0.0 255 0 0
-0.00706 0.0466 0.38905 0.0 -1.0 0.0 255 0 0
-0.00556 0.04699 0.38268 1.0 -1.0 -0.0 255 0 0
-0.00509 0.04558 0.3891 1.0 0.0 -1.0 255 0 0
-0.00486 0.04716 0.38858 1.0 -1.0 -0.0 255 0 0
-0.00554 0.04608 0.38889 0.0 1.0 -1.0 255 0 0
-0.00934 0.04306 0.38903 1.0 -0.0 -0.0 255 0 0
-0.00832 0.04551 0.38875 1.0 -0.0 -0.0 255 0 0
-0.00798 0.04522 0.38329 1.0 -1.0 0.0 255 0 0
-0.00791 0.04398 0.38881 0.0 1.0 0.0 255 0 0
-0.00945 0.04211 0.389 1.0 -0.0 -0.0 255 0 0
-0.00833 0.04298 0.38892 1.0 -1.0 -0.0 255 0 0
-0.01186 0.0397 0.38319 1.0 -0.0 -0.0 255 0 0
-0.01099 0.03985 0.38348 1.0 -0.0 -0.0 255 0 0
-0.01014 0.04387 0.38319 1.0 -1.0 0.0 255 0 0
-0.00862 0.04484 0.38304 1.0 -1.0 0.0 255 0 0
-0.00582 0.04617 0.3832 1.0 -1.0 -0.0 255 0 0
-0.00494 0.04646 0.38881 1.0 -1.0 -0.0 255 0 0
-0.00865 0.04378 0.38317 1.0 -1.0 0.0 255 0 0
-0.01082 0.04281 0.38333 1.0 -0.0 -0.0 255 0 0
-0.00665 0.04356 0.38925 0.0 1.0 0.0 255 0 0
-0.00717 0.04427 0.3885 0.0 1.0 1.0 255 0 0
-0.01145 0.03817 0.38339 1.0 -0.0 -0.0 255 0 0
-0.00976 0.04131 0.38867 1.0 -0.0 -0.0 255 0 0
-0.00617 0.04574 0.38363 1.0 -1.0 0.0 255 0 0
-0.00697 0.04613 0.38351 1.0 -1.0 0.0 255 0 0
-0.0096 0.04304 0.38315 1.0 -1.0 -0.0 255 0 0
-0.00934 0.04374 0.38877 1.0 -0.0 -0.0 255 0 0
