ply
format ascii 1.0
element vertex 1052
property float x
property float y
property float z
property float nx
property float ny
property float nz
property uchar red
property uchar green
property uchar blue
element face 0
end_header
-0.00626 0.04088 0.40668 0.0 -1.0 1.0 255 0 0
0.00567 0.04499 0.40908 0.0 1.0 -0.0 255 0 0
0.00171 0.04584 0.40873 0.0 1.0 -0.0 255 0 0
0.00213 0.04538 0.40882 0.0 1.0 -0.0 255 0 0
-0.00107 0.04474 0.40653 1.0 -0.0 1.0 255 0 0
0.00368 0.04505 0.40845 0.0 1.0 -0.0 255 0 0
0.00571 0.04414 0.4094 1.0 -1.0 -0.0 255 0 0
0.00309 0.04522 0.40873 0.0 1.0 0.0 255 0 0
-0.00398 0.04264 0.40661 0.0 -1.0 1.0 255 0 0
0.00508 0.04501 0.40873 0.0 1.0 -0.0 255 0 0
0.00344 0.04546 0.40857 0.0 1.0 -0.0 255 0 0
0.00105 0.04595 0.40875 1.0 1.0 -0.0 255 0 0
-0.009 0.04447 0.40646 0.0 -0.0 1.0 255 0 0
-0.00947 0.04455 0.40636 0.0 -0.0 1.0 255 0 0
-0.00534 0.04709 0.40683 0.0 -1.0 -0.0 255 0 0
-0.0086 0.04555 0.40629 0.0 -1.0 1.0 255 0 0
-0.00401 0.04577 0.40636 0.0 -0.0 -1.0 255 0 0
-0.00724 0.04535 0.40603 0.0 -0.0 1.0 255 0 0
-0.00881 0.04403 0.40655 0.0 -0.0 -1.0 255 0 0
-0.0077 0.04632 0.40656 0.0 -1.0 0.0 255 0 0
-0.00488 0.04707 0.40659 0.0 -1.0 0.0 255 0 0
-0.00908 0.04361 0.40654 0.0 -0.0 -1.0 255 0 0
-0.01012 0.0436 0.40586 0.0 0.0 -1.0 255 0 0
-0.00803 0.04499 0.40617 0.0 0.0 1.0 255 0 0
-0.00806 0.04411 0.40669 0.0 -1.0 -1.0 255 0 0
-0.01081 0.04445 0.40664 0.0 -1.0 -0.0 255 0 0
-0.00975 0.04288 0.40644 1.0 -0.0 -1.0 255 0 0
0.00566 0.04403 0.40636 0.0 1.0 -0.0 255 0 0
-0.0126 0.04267 0.40619 1.0 -1.0 -0.0 255 0 0
-0.00369 0.04701 0.40644 0.0 1.0 -1.0 255 0 0
-0.002 0.04626 0.40635 0.0 1.0 1.0 255 0 0
-0.00624 0.04687 0.40644 0.0 -1.0 0.0 255 0 0
0.00127 0.04552 0.4064 0.0 1.0 -0.0 255 0 0
0.00433 0.04495 0.40663 0.0 1.0 -0.0 255 0 0
-0.00073 0.04543 0.40653 0.0 -0.0 1.0 255 0 0
0.003 0.04482 0.40607 0.0 1.0 -0.0 255 0 0
-0.00174 0.04516 0.40674 0.0 -0.0 1.0 255 0 0
0.00375 0.0445 0.40657 0.0 1.0 -0.0 255 0 0
-0.00522 0.04177 0.40662 0.0 -1.0 1.0 255 0 0
-0.01091 0.04391 0.40684 0.0 -1.0 -0.0 255 0 0
-0.01193 0.04015 0.40647 0.0 -0.0 1.0 255 0 0
0.005 0.04452 0.40848 0.0 1.0 -0.0 255 0 0
-0.01161 0.04383 0.40651 1.0 -1.0 -0.0 255 0 0
0.0012 0.04681 0.40883 1.0 1.0 -0.0 255 0 0
-0.00725 0.04114 0.40665 0.0 -1.0 1.0 255 0 0
-0.00973 0.04147 0.40726 0.0 0.0 -1.0 255 0 0
-0.00799 0.04091 0.40656 0.0 -1.0 1.0 255 0 0
0.00209 0.04572 0.40839 0.0 1.0 -0.0 255 0 0
-0.00264 0.04374 0.4065 1.0 -1.0 1.0 255 0 0
-0.00342 0.04211 0.40657 0.0 -1.0 1.0 255 0 0
0.0046 0.04482 0.40881 0.0 1.0 -0.0 255 0 0
-0.01033 0.04176 0.40726 0.0 0.0 -1.0 255 0 0
0.00592 0.04465 0.40849 0.0 1.0 -0.0 255 0 0
-0.00668 0.0407 0.40661 0.0 -1.0 1.0 255 0 0
0.00378 0.04533 0.40814 0.0 1.0 -0.0 255 0 0
-0.00711 0.04055 0.4065 0.0 -1.0 1.0 255 0 0
-0.01078 0.04104 0.40641 0.0 1.0 -1.0 255 0 0
-0.00522 0.04116 0.40664 0.0 -1.0 1.0 255 0 0
0.0041 0.04505 0.40903 0.0 1.0 -0.0 255 0 0
-0.01044 0.04075 0.40645 0.0 1.0 -1.0 255 0 0
-0.00304 0.04229 0.40647 1.0 -0.0 1.0 255 0 0
0.00109 0.04639 0.40817 1.0 1.0 -0.0 255 0 0
0.0008 0.047 0.40858 1.0 1.0 -0.0 255 0 0
0.00464 0.04513 0.40846 0.0 1.0 -0.0 255 0 0
-0.01134 0.04061 0.40644 0.0 -1.0 1.0 255 0 0
-0.00199 0.04304 0.4061 1.0 -0.0 1.0 255 0 0
0.00247 0.04566 0.40822 0.0 1.0 -0.0 255 0 0
-0.00814 0.04047 0.4065 0.0 -1.0 1.0 255 0 0
-0.00434 0.04156 0.4066 0.0 -1.0 1.0 255 0 0
-0.01188 0.0407 0.4065 0.0 -0.0 1.0 255 0 0
0.00348 0.04533 0.4063 0.0 1.0 0.0 255 0 0
0.00414 0.04516 0.40774 0.0 1.0 -0.0 255 0 0
-0.00576 0.04144 0.40655 0.0 -1.0 1.0 255 0 0
-0.00852 0.0407 0.40638 0.0 -1.0 1.0 255 0 0
-0.01216 0.04317 0.40631 1.0 -1.0 -0.0 255 0 0
-0.01236 0.04301 0.40598 1.0 -1.0 0.0 255 0 0
-0.0065 0.04119 0.40654 0.0 -1.0 1.0 255 0 0
0.00327 0.04514 0.40833 0.0 1.0 -0.0 255 0 0
-0.01066 0.04177 0.40623 1.0 -0.0 -0.0 255 0 0
0.00149 0.04591 0.40825 0.0 1.0 -0.0 255 0 0
0.00112 0.04563 0.40776 0.0 1.0 -0.0 255 0 0
-0.00159 0.04384 0.4064 1.0 -1.0 1.0 255 0 0
-0.01015 0.04434 0.40743 0.0 -1.0 -1.0 255 0 0
-0.00228 0.04409 0.40651 1.0 -1.0 1.0 255 0 0
0.00535 0.04429 0.40817 0.0 1.0 -0.0 255 0 0
-0.00757 0.04209 0.40739 0.0 -0.0 1.0 255 0 0
0.00025 0.04688 0.40804 1.0 1.0 -0.0 255 0 0
-0.00743 0.04606 0.40709 0.0 -1.0 -0.0 255 0 0
0.0027 0.04517 0.4078 0.0 1.0 -0.0 255 0 0
-0.01275 0.04107 0.40648 1.0 0.0 -1.0 255 0 0
0.0055 0.0448 0.4082 0.0 1.0 -0.0 255 0 0
-0.00683 0.04612 0.40723 0.0 -1.0 -1.0 255 0 0
0.00198 0.04583 0.407 0.0 1.0 0.0 255 0 0
0.00113 0.04573 0.40827 0.0 1.0 -0.0 255 0 0
-0.00563 0.0443 0.40804 0.0 0.0 1.0 255 0 0
-0.00046 0.0452 0.40632 0.0 -1.0 1.0 255 0 0
-0.00554 0.04652 0.40723 0.0 -1.0 -1.0 255 0 0
-0.00555 0.04068 0.40637 0.0 -0.0 1.0 255 0 0
-0.00275 0.0461 0.40719 0.0 1.0 1.0 255 0 0
-0.01264 0.04067 0.40634 0.0 0.0 -1.0 255 0 0
0.0058 0.04446 0.40765 0.0 1.0 -0.0 255 0 0
0.00536 0.0447 0.40752 0.0 1.0 -0.0 255 0 0
-0.00458 0.04123 0.40643 0.0 -1.0 1.0 255 0 0
-0.00782 0.04602 0.40692 1.0 -1.0 -0.0 255 0 0
0.00289 0.04492 0.40688 0.0 1.0 0.0 255 0 0
-0.00473 0.04483 0.40717 0.0 -1.0 -1.0 255 0 0
-0.00759 0.044 0.40698 0.0 -1.0 -0.0 255 0 0
-0.00371 0.04611 0.40622 0.0 0.0 -1.0 255 0 0
-0.00729 0.04388 0.40731 0.0 -0.0 -1.0 255 0 0
-0.00773 0.04469 0.40634 0.0 0.0 1.0 255 0 0
-0.0054 0.04675 0.40628 0.0 1.0 -1.0 255 0 0
-0.00462 0.04643 0.40622 0.0 0.0 -1.0 255 0 0
-0.0058 0.0462 0.4061 0.0 0.0 -1.0 255 0 0
-0.00498 0.04598 0.40622 0.0 0.0 -1.0 255 0 0
-0.00581 0.04685 0.40636 0.0 -1.0 0.0 255 0 0
-0.00587 0.04495 0.40665 0.0 -1.0 -1.0 255 0 0
-0.00709 0.0463 0.4061 0.0 -0.0 1.0 255 0 0
-0.00308 0.04641 0.40619 0.0 -0.0 1.0 255 0 0
-0.00636 0.04584 0.40604 0.0 0.0 -1.0 255 0 0
-0.00844 0.045 0.40623 0.0 -0.0 1.0 255 0 0
-0.00662 0.04624 0.40605 0.0 -0.0 1.0 255 0 0
-0.00685 0.04555 0.40603 0.0 0.0 -1.0 255 0 0
-0.00444 0.04708 0.40714 0.0 1.0 1.0 255 0 0
-0.00664 0.04661 0.40624 0.0 -1.0 0.0 255 0 0
-0.00325 0.04598 0.40624 0.0 -0.0 -1.0 255 0 0
-0.00741 0.0458 0.40591 0.0 -0.0 1.0 255 0 0
-0.00774 0.04611 0.4061 0.0 -1.0 1.0 255 0 0
-0.00812 0.04597 0.40616 1.0 -1.0 1.0 255 0 0
-0.00484 0.04554 0.40642 0.0 -0.0 -1.0 255 0 0
-0.00743 0.04502 0.40618 0.0 0.0 1.0 255 0 0
-0.00851 0.04454 0.40644 0.0 0.0 1.0 255 0 0
-0.00506 0.04645 0.40621 0.0 -0.0 1.0 255 0 0
-0.00591 0.04526 0.40638 0.0 -1.0 -1.0 255 0 0
-0.01019 0.04312 0.40588 1.0 -0.0 -1.0 255 0 0
-0.00417 0.04718 0.40682 0.0 1.0 0.0 255 0 0
-0.00421 0.0466 0.40623 0.0 -0.0 1.0 255 0 0
-0.00356 0.04669 0.40623 0.0 0.0 -1.0 255 0 0
-0.00413 0.04613 0.40622 0.0 -0.0 1.0 255 0 0
-0.01085 0.04367 0.40549 0.0 -1.0 1.0 255 0 0
-0.00272 0.04559 0.40643 0.0 1.0 1.0 255 0 0
-0.01154 0.04421 0.40632 1.0 -1.0 0.0 255 0 0
-0.00129 0.04605 0.40655 0.0 0.0 1.0 255 0 0
-0.0016 0.04609 0.40625 0.0 1.0 1.0 255 0 0
-0.00597 0.04446 0.4072 0.0 -1.0 -1.0 255 0 0
-0.00113 0.04527 0.40628 0.0 -0.0 1.0 255 0 0
-0.0012 0.04571 0.40614 0.0 0.0 1.0 255 0 0
-0.0112 0.04415 0.4066 1.0 -1.0 -0.0 255 0 0
-0.00162 0.04551 0.40628 0.0 0.0 1.0 255 0 0
-0.01178 0.04401 0.4059 1.0 -1.0 0.0 255 0 0
-0.00239 0.04608 0.40622 0.0 1.0 1.0 255 0 0
-0.01207 0.04358 0.40618 1.0 -1.0 -0.0 255 0 0
-0.00194 0.04582 0.4062 0.0 1.0 1.0 255 0 0
-0.01276 0.04222 0.40655 1.0 -0.0 -1.0 255 0 0
0.00574 0.04439 0.40677 0.0 1.0 -0.0 255 0 0
0.00394 0.04459 0.40715 0.0 1.0 -0.0 255 0 0
-0.01117 0.04143 0.40527 1.0 0.0 -1.0 255 0 0
0.00224 0.04516 0.40577 0.0 1.0 -0.0 255 0 0
-0.0059 0.04181 0.40733 0.0 -1.0 1.0 255 0 0
-0.00615 0.04097 0.40628 0.0 -1.0 1.0 255 0 0
-0.00838 0.04124 0.40721 0.0 -1.0 1.0 255 0 0
-0.01363 0.04011 0.40581 1.0 0.0 -0.0 255 0 0
-0.01363 0.04051 0.40559 1.0 -0.0 -0.0 255 0 0
-0.00746 0.04077 0.4064 0.0 -1.0 1.0 255 0 0
-0.00028 0.04563 0.40635 0.0 -1.0 0.0 255 0 0
-0.00224 0.04313 0.4064 1.0 -0.0 1.0 255 0 0
-0.00628 0.04352 0.40802 0.0 -0.0 -1.0 255 0 0
-0.00266 0.04244 0.40628 1.0 -0.0 1.0 255 0 0
-0.0037 0.04234 0.40621 0.0 -1.0 1.0 255 0 0
-0.00585 0.04346 0.40801 0.0 -0.0 1.0 255 0 0
-0.01028 0.04317 0.40739 0.0 -0.0 -1.0 255 0 0
-0.00986 0.04184 0.40737 0.0 0.0 -1.0 255 0 0
-0.00597 0.04392 0.40804 0.0 0.0 1.0 255 0 0
-0.00998 0.04352 0.40739 0.0 -0.0 -1.0 255 0 0
-0.00192 0.04347 0.40639 1.0 -0.0 1.0 255 0 0
-0.00613 0.04462 0.40801 0.0 -0.0 -1.0 255 0 0
-0.012 0.03888 0.40628 0.0 -0.0 1.0 255 0 0
-0.01101 0.04038 0.40629 0.0 -0.0 1.0 255 0 0
-0.01247 0.03921 0.40628 0.0 0.0 -1.0 255 0 0
-0.01325 0.03931 0.40621 1.0 0.0 -1.0 255 0 0
0.00484 0.0446 0.40636 0.0 1.0 -0.0 255 0 0
0.00318 0.04503 0.40768 0.0 1.0 -0.0 255 0 0
0.0019 0.04546 0.40807 0.0 1.0 -0.0 255 0 0
-0.01318 0.04086 0.40625 1.0 0.0 -1.0 255 0 0
0.00192 0.04588 0.40635 0.0 1.0 0.0 255 0 0
0.00024 0.04632 0.40811 1.0 1.0 -0.0 255 0 0
0.00451 0.04467 0.40799 0.0 1.0 -0.0 255 0 0
0.00072 0.04588 0.40792 1.0 1.0 -0.0 255 0 0
-0.00927 0.04058 0.40626 0.0 1.0 -1.0 255 0 0
0.00053 0.04617 0.40844 1.0 1.0 -0.0 255 0 0
-0.01359 0.03921 0.40596 1.0 0.0 -0.0 255 0 0
0.00416 0.04483 0.4083 0.0 1.0 -0.0 255 0 0
0.00396 0.04513 0.40624 0.0 1.0 -0.0 255 0 0
-0.0136 0.04078 0.40615 1.0 -0.0 -1.0 255 0 0
-0.00435 0.04172 0.40619 0.0 -1.0 1.0 255 0 0
-0.0038 0.04134 0.40619 0.0 -0.0 1.0 255 0 0
-0.00293 0.04332 0.40635 1.0 -1.0 1.0 255 0 0
-0.0044 0.04341 0.40739 0.0 -0.0 1.0 255 0 0
-0.00335 0.04167 0.40615 0.0 -0.0 1.0 255 0 0
-0.0059 0.04034 0.40622 0.0 -0.0 1.0 255 0 0
-0.00751 0.04025 0.40621 0.0 -0.0 1.0 255 0 0
-0.00384 0.04388 0.40743 0.0 -0.0 1.0 255 0 0
-0.00629 0.04004 0.4062 0.0 -0.0 1.0 255 0 0
-0.01068 0.03874 0.40618 0.0 -0.0 -1.0 255 0 0
-0.00857 0.03845 0.40614 0.0 -0.0 -1.0 255 0 0
-0.01072 0.04229 0.40734 0.0 0.0 -1.0 255 0 0
-0.00734 0.04379 0.40797 0.0 -0.0 -1.0 255 0 0
-0.00486 0.04417 0.40797 0.0 0.0 1.0 255 0 0
-0.01296 0.04044 0.40618 1.0 0.0 -1.0 255 0 0
-0.00284 0.04413 0.40741 0.0 -0.0 1.0 255 0 0
-0.00911 0.03832 0.40617 0.0 0.0 1.0 255 0 0
-2e-05 0.04536 0.40615 0.0 -1.0 0.0 255 0 0
-0.00583 0.04494 0.40796 0.0 0.0 1.0 255 0 0
-0.00417 0.04111 0.40621 0.0 -0.0 1.0 255 0 0
-0.00106 0.0442 0.40621 1.0 -1.0 1.0 255 0 0
-0.00466 0.04085 0.40622 0.0 -0.0 1.0 255 0 0
-0.00511 0.0404 0.40617 0.0 -0.0 1.0 255 0 0
-0.00478 0.04477 0.40796 0.0 0.0 1.0 255 0 0
-0.01002 0.0442 0.40695 0.0 -1.0 -1.0 255 0 0
-0.00081 0.04594 0.4064 0.0 -0.0 1.0 255 0 0
-0.01069 0.04463 0.40608 0.0 -1.0 0.0 255 0 0
-0.0136 0.04145 0.40544 1.0 -0.0 0.0 255 0 0
-0.01325 0.04164 0.40623 1.0 -0.0 -1.0 255 0 0
0.00243 0.04579 0.40611 0.0 1.0 0.0 255 0 0
0.00231 0.0458 0.40653 0.0 1.0 0.0 255 0 0
-0.0053 0.0448 0.40801 0.0 0.0 1.0 255 0 0
-0.01352 0.04119 0.4061 1.0 -0.0 -0.0 255 0 0
-0.01363 0.03968 0.40593 1.0 0.0 -0.0 255 0 0
-0.01363 0.04011 0.40516 1.0 0.0 0.0 255 0 0
-0.00656 0.04429 0.40799 0.0 -0.0 -1.0 255 0 0
-0.00579 0.03986 0.40613 0.0 -0.0 1.0 255 0 0
-0.00617 0.03951 0.40613 0.0 -0.0 1.0 255 0 0
-0.00658 0.0397 0.40614 0.0 -0.0 1.0 255 0 0
-0.0067 0.03916 0.40615 0.0 0.0 -1.0 255 0 0
-0.00921 0.04167 0.40739 0.0 0.0 -1.0 255 0 0
-0.00655 0.03863 0.40613 0.0 0.0 1.0 255 0 0
-0.00784 0.04383 0.4079 0.0 -0.0 -1.0 255 0 0
-0.00703 0.04383 0.40769 0.0 -0.0 -1.0 255 0 0
-0.00128 0.04458 0.4062 1.0 -0.0 1.0 255 0 0
-0.00752 0.03975 0.40613 0.0 -0.0 1.0 255 0 0
-0.00716 0.03789 0.40609 0.0 -0.0 1.0 255 0 0
-0.00788 0.04152 0.40738 0.0 -1.0 1.0 255 0 0
-0.00188 0.04407 0.40607 1.0 -1.0 1.0 255 0 0
-0.00737 0.04157 0.40737 0.0 -1.0 1.0 255 0 0
-0.00508 0.04527 0.4079 0.0 0.0 1.0 255 0 0
-0.00549 0.04026 0.40618 0.0 -0.0 1.0 255 0 0
-0.00554 0.04314 0.40792 0.0 -0.0 1.0 255 0 0
-0.00254 0.04343 0.40609 1.0 -1.0 1.0 255 0 0
-0.00717 0.04305 0.40793 0.0 0.0 -1.0 255 0 0
-0.00391 0.04644 0.40721 0.0 1.0 1.0 255 0 0
-0.0035 0.04274 0.40634 1.0 -0.0 1.0 255 0 0
-0.00534 0.04109 0.40611 0.0 -1.0 1.0 255 0 0
-0.00283 0.04206 0.40611 0.0 -1.0 1.0 255 0 0
-0.00847 0.03798 0.40612 0.0 0.0 1.0 255 0 0
-0.00693 0.03997 0.40616 0.0 -0.0 1.0 255 0 0
-0.00403 0.04196 0.40619 0.0 -1.0 1.0 255 0 0
-0.00174 0.04527 0.40731 0.0 -0.0 1.0 255 0 0
-0.00527 0.04402 0.40792 0.0 0.0 1.0 255 0 0
0.00072 0.04279 0.40209 0.0 1.0 0.0 255 0 0
-0.00717 0.03908 0.40614 0.0 -0.0 1.0 255 0 0
-0.00707 0.03868 0.40616 0.0 0.0 1.0 255 0 0
-0.0076 0.03896 0.40611 0.0 -0.0 -1.0 255 0 0
-0.00847 0.04008 0.40614 0.0 -0.0 1.0 255 0 0
-0.01006 0.03889 0.40611 0.0 0.0 1.0 255 0 0
-0.00238 0.04588 0.40744 0.0 0.0 1.0 255 0 0
-0.00982 0.0405 0.4062 0.0 1.0 -1.0 255 0 0
-0.01132 0.03894 0.4062 0.0 -0.0 1.0 255 0 0
0.00037 0.046 0.40755 0.0 1.0 -0.0 255 0 0
-0.01171 0.04019 0.40615 0.0 -0.0 1.0 255 0 0
-0.01051 0.04402 0.40732 0.0 -1.0 -1.0 255 0 0
-0.00359 0.04505 0.40722 0.0 0.0 1.0 255 0 0
-0.00864 0.03888 0.40611 0.0 -0.0 -1.0 255 0 0
-0.00971 0.03772 0.40613 0.0 -0.0 1.0 255 0 0
-0.00797 0.03861 0.40612 0.0 -0.0 -1.0 255 0 0
-0.0064 0.04498 0.40793 0.0 -0.0 -1.0 255 0 0
-0.0077 0.04437 0.40783 0.0 -0.0 -1.0 255 0 0
-0.00566 0.03808 0.4061 0.0 0.0 1.0 255 0 0
-0.00705 0.04413 0.40797 0.0 -0.0 -1.0 255 0 0
-0.00945 0.0391 0.40605 0.0 -0.0 -1.0 255 0 0
-0.00659 0.04651 0.407 0.0 -1.0 -0.0 255 0 0
-0.01114 0.0381 0.40613 0.0 0.0 -1.0 255 0 0
-0.00283 0.04572 0.4074 0.0 0.0 1.0 255 0 0
-0.00054 0.04438 0.40247 1.0 -0.0 -0.0 255 0 0
-0.00454 0.04582 0.40629 0.0 0.0 1.0 255 0 0
-0.0114 0.03972 0.40619 0.0 -0.0 1.0 255 0 0
-0.00323 0.04607 0.40733 1.0 0.0 1.0 255 0 0
-0.00228 0.04266 0.40611 1.0 -0.0 1.0 255 0 0
-0.00821 0.04536 0.40736 0.0 -1.0 -1.0 255 0 0
0.00577 0.04432 0.40831 0.0 1.0 -0.0 255 0 0
0.00065 0.04682 0.40776 1.0 1.0 -0.0 255 0 0
9e-05 0.04636 0.40767 0.0 1.0 -0.0 255 0 0
-0.00373 0.04613 0.40782 0.0 0.0 1.0 255 0 0
-0.00311 0.04612 0.40787 0.0 0.0 1.0 255 0 0
-0.00263 0.04313 0.40586 1.0 -0.0 1.0 255 0 0
5e-05 0.04512 0.40338 1.0 -0.0 -0.0 255 0 0
-0.00514 0.03984 0.40611 0.0 -0.0 1.0 255 0 0
-0.00559 0.0391 0.4061 0.0 -0.0 1.0 255 0 0
-0.00852 0.04465 0.40756 0.0 -0.0 -1.0 255 0 0
-0.00037 0.04372 0.40255 1.0 0.0 -0.0 255 0 0
0.00134 0.04281 0.40225 0.0 -1.0 -0.0 255 0 0
0.00116 0.04602 0.40789 0.0 1.0 -0.0 255 0 0
-0.00017 0.04337 0.40271 1.0 1.0 0.0 255 0 0
0.0034 0.04401 0.40281 1.0 -0.0 -0.0 255 0 0
-0.00557 0.0395 0.4061 0.0 -0.0 1.0 255 0 0
0.00212 0.04321 0.40218 1.0 -1.0 -0.0 255 0 0
0.00234 0.04343 0.40276 1.0 -1.0 0.0 255 0 0
0.00309 0.04385 0.4025 1.0 -1.0 -0.0 255 0 0
0.00288 0.04558 0.40817 0.0 1.0 0.0 255 0 0
-0.00608 0.03877 0.40611 0.0 -0.0 1.0 255 0 0
-0.0057 0.03857 0.40606 0.0 -0.0 1.0 255 0 0
-0.00759 0.03779 0.4061 0.0 -0.0 1.0 255 0 0
0.00237 0.04574 0.4074 0.0 1.0 0.0 255 0 0
-0.00019 0.04469 0.4032 1.0 -0.0 -0.0 255 0 0
0.00385 0.04357 0.40344 1.0 0.0 -1.0 255 0 0
0.00051 0.04283 0.40257 0.0 1.0 0.0 255 0 0
-0.00635 0.03725 0.40605 0.0 0.0 -1.0 255 0 0
-0.00767 0.03819 0.40609 0.0 -0.0 1.0 255 0 0
-0.0069 0.03751 0.40607 0.0 -0.0 1.0 255 0 0
-0.00652 0.03779 0.4061 0.0 -0.0 1.0 255 0 0
-0.00037 0.04327 0.4031 1.0 0.0 0.0 255 0 0
-0.00265 0.04576 0.4078 0.0 0.0 1.0 255 0 0
0.00039 0.04557 0.40311 1.0 -1.0 -0.0 255 0 0
0.00176 0.04296 0.40287 1.0 -1.0 0.0 255 0 0
0.00089 0.04267 0.40272 0.0 -1.0 -0.0 255 0 0
0.00132 0.04272 0.40271 0.0 -1.0 -0.0 255 0 0
0.00013 0.04286 0.40293 1.0 1.0 0.0 255 0 0
0.00345 0.04446 0.40288 1.0 -0.0 -0.0 255 0 0
0.00049 0.04252 0.40314 1.0 1.0 0.0 255 0 0
-0.00819 0.03757 0.40607 0.0 -0.0 1.0 255 0 0
0.00308 0.04377 0.40319 1.0 -1.0 -0.0 255 0 0
0.00276 0.04359 0.40284 1.0 -1.0 0.0 255 0 0
-0.00033 0.04386 0.403 1.0 0.0 -0.0 255 0 0
-0.00803 0.03794 0.40611 0.0 -0.0 1.0 255 0 0
0.00266 0.04397 0.40314 0.0 -1.0 0.0 255 0 0
-0.00032 0.04277 0.40332 1.0 0.0 1.0 255 0 0
0.00191 0.0432 0.40326 1.0 -1.0 0.0 255 0 0
0.00351 0.04483 0.40313 1.0 0.0 -0.0 255 0 0
-0.00812 0.03933 0.40608 0.0 0.0 -1.0 255 0 0
-0.01051 0.04282 0.40739 0.0 -0.0 -1.0 255 0 0
0.00051 0.04217 0.40344 0.0 1.0 1.0 255 0 0
0.00104 0.04257 0.40309 0.0 -1.0 -0.0 255 0 0
0.00368 0.04421 0.40327 1.0 0.0 -1.0 255 0 0
-0.00955 0.04386 0.40744 0.0 -0.0 -1.0 255 0 0
0.00105 0.04226 0.40351 0.0 -1.0 -1.0 255 0 0
-0.00701 0.04472 0.4079 0.0 -0.0 -1.0 255 0 0
0.00329 0.04541 0.4033 1.0 0.0 0.0 255 0 0
0.00166 0.04416 0.4036 0.0 -0.0 1.0 255 0 0
0.00358 0.04508 0.40362 1.0 1.0 -0.0 255 0 0
-0.00036 0.04439 0.40293 1.0 -0.0 -0.0 255 0 0
3e-05 0.04306 0.40373 1.0 0.0 1.0 255 0 0
0.00012 0.04352 0.40377 0.0 -0.0 1.0 255 0 0
0.00171 0.04272 0.4034 1.0 -1.0 -0.0 255 0 0
0.00087 0.04333 0.40354 0.0 -1.0 1.0 255 0 0
-8e-05 0.04181 0.40373 0.0 0.0 1.0 255 0 0
-0.0114 0.03849 0.4061 0.0 0.0 -1.0 255 0 0
0.00012 0.04231 0.4034 0.0 0.0 1.0 255 0 0
-0.00913 0.03751 0.40613 0.0 -0.0 1.0 255 0 0
0.0026 0.04445 0.4034 0.0 -1.0 1.0 255 0 0
0.00242 0.04408 0.40352 0.0 -1.0 1.0 255 0 0
0.00222 0.04603 0.40426 0.0 1.0 0.0 255 0 0
-0.01212 0.04006 0.40606 0.0 -0.0 1.0 255 0 0
0.00278 0.04595 0.40334 1.0 1.0 0.0 255 0 0
0.00162 0.04467 0.40345 0.0 -0.0 1.0 255 0 0
0.00118 0.04606 0.40364 0.0 -1.0 -0.0 255 0 0
-0.00042 0.04381 0.40343 1.0 -0.0 0.0 255 0 0
0.00357 0.04387 0.40389 0.0 1.0 -0.0 255 0 0
0.00121 0.04454 0.40339 0.0 0.0 -1.0 255 0 0
0.00131 0.04369 0.40348 0.0 -0.0 1.0 255 0 0
0.00337 0.04371 0.40351 1.0 1.0 -1.0 255 0 0
-0.01254 0.03981 0.40611 0.0 0.0 -1.0 255 0 0
0.00282 0.04584 0.40387 1.0 1.0 0.0 255 0 0
0.0004 0.04326 0.40352 0.0 1.0 -1.0 255 0 0
-0.01314 0.03995 0.40613 1.0 0.0 -1.0 255 0 0
-0.00071 0.04296 0.40368 1.0 -0.0 1.0 255 0 0
-0.00603 0.0377 0.40606 0.0 -0.0 1.0 255 0 0
0.00218 0.04367 0.40344 1.0 -0.0 1.0 255 0 0
0.00179 0.04617 0.40379 0.0 1.0 0.0 255 0 0
-0.00592 0.04255 0.40741 0.0 -0.0 1.0 255 0 0
0.00233 0.04494 0.4037 0.0 -0.0 1.0 255 0 0
0.00206 0.04622 0.40349 0.0 1.0 0.0 255 0 0
0.00238 0.04608 0.40378 0.0 1.0 0.0 255 0 0
0.00044 0.04376 0.40355 0.0 0.0 -1.0 255 0 0
0.0033 0.04547 0.404 1.0 1.0 0.0 255 0 0
0.0009 0.04187 0.40381 0.0 -1.0 -1.0 255 0 0
0.00396 0.04393 0.40361 1.0 0.0 -1.0 255 0 0
0.00317 0.04419 0.40353 0.0 1.0 -1.0 255 0 0
0.00164 0.04626 0.40343 0.0 -1.0 -0.0 255 0 0
0.00298 0.04451 0.40371 0.0 -1.0 1.0 255 0 0
-0.00022 0.04269 0.40405 1.0 0.0 1.0 255 0 0
0.00107 0.04305 0.40389 0.0 -0.0 -1.0 255 0 0
-0.01212 0.03815 0.40599 0.0 1.0 -1.0 255 0 0
0.00057 0.04295 0.40376 0.0 0.0 -1.0 255 0 0
-0.00079 0.0433 0.40391 1.0 -0.0 1.0 255 0 0
-0.00063 0.0437 0.40384 1.0 -0.0 0.0 255 0 0
6e-05 0.04144 0.40389 0.0 0.0 1.0 255 0 0
0.00338 0.04541 0.40589 0.0 1.0 0.0 255 0 0
0.00479 0.04448 0.40583 0.0 1.0 -0.0 255 0 0
0.00336 0.04469 0.40645 0.0 1.0 -0.0 255 0 0
0.00144 0.04549 0.40589 0.0 1.0 -0.0 255 0 0
0.00048 0.04177 0.40372 0.0 -1.0 -1.0 255 0 0
-0.00029 0.04417 0.40378 1.0 -0.0 0.0 255 0 0
-9e-05 0.04451 0.40383 1.0 -0.0 -0.0 255 0 0
0.00038 0.04397 0.40397 0.0 -0.0 1.0 255 0 0
0.00381 0.04464 0.40374 1.0 0.0 -0.0 255 0 0
0.00093 0.04434 0.40376 0.0 0.0 -1.0 255 0 0
-8e-05 0.04575 0.406 0.0 -1.0 0.0 255 0 0
-0.00458 0.04138 0.40603 0.0 -1.0 1.0 255 0 0
-0.00054 0.04168 0.40391 0.0 0.0 1.0 255 0 0
0.00155 0.04355 0.4039 0.0 -0.0 -1.0 255 0 0
0.00188 0.04392 0.40393 0.0 -0.0 1.0 255 0 0
-0.00655 0.04276 0.40786 0.0 -0.0 1.0 255 0 0
-0.00032 0.04126 0.40399 0.0 0.0 1.0 255 0 0
-0.00065 0.04552 0.40604 0.0 -0.0 1.0 255 0 0
0.00178 0.0425 0.40392 1.0 -0.0 -0.0 255 0 0
-0.00632 0.04063 0.40603 0.0 -0.0 1.0 255 0 0
0.00026 0.04273 0.4039 0.0 0.0 1.0 255 0 0
0.00071 0.04261 0.4041 0.0 -0.0 -1.0 255 0 0
0.00099 0.04128 0.40423 0.0 -0.0 -1.0 255 0 0
-0.01363 0.03926 0.40553 1.0 0.0 0.0 255 0 0
-0.00793 0.04026 0.40602 0.0 -0.0 1.0 255 0 0
-0.00056 0.04477 0.40614 1.0 -0.0 1.0 255 0 0
0.00401 0.04342 0.40382 1.0 1.0 -0.0 255 0 0
0.00434 0.04483 0.40589 1.0 1.0 -0.0 255 0 0
-0.00108 0.04209 0.40408 0.0 -0.0 1.0 255 0 0
-0.00075 0.04218 0.40389 0.0 0.0 1.0 255 0 0
0.00048 0.04124 0.40404 0.0 -1.0 -1.0 255 0 0
-0.00894 0.04203 0.40741 0.0 0.0 -1.0 255 0 0
-0.0047 0.03969 0.40605 0.0 -0.0 1.0 255 0 0
-0.00295 0.04271 0.40587 1.0 -0.0 1.0 255 0 0
0.00251 0.04495 0.40409 0.0 -1.0 1.0 255 0 0
0.0036 0.04408 0.40427 1.0 1.0 -0.0 255 0 0
0.00368 0.04511 0.40428 1.0 1.0 -0.0 255 0 0
-0.00096 0.04264 0.40399 1.0 -0.0 1.0 255 0 0
-0.01175 0.03966 0.406 1.0 -0.0 1.0 255 0 0
-0.00044 0.04085 0.40415 0.0 0.0 1.0 255 0 0
-0.0031 0.04374 0.40738 0.0 -0.0 1.0 255 0 0
0.00108 0.04594 0.40412 0.0 -1.0 -0.0 255 0 0
0.00159 0.04212 0.404 1.0 -1.0 -1.0 255 0 0
-0.00374 0.04326 0.40743 0.0 -0.0 1.0 255 0 0
-0.00516 0.03829 0.40604 0.0 0.0 1.0 255 0 0
7e-05 0.04381 0.4042 0.0 -0.0 1.0 255 0 0
-0.0033 0.04423 0.40736 0.0 -0.0 1.0 255 0 0
0.00196 0.04315 0.40384 1.0 -1.0 -0.0 255 0 0
0.00424 0.04405 0.40407 1.0 0.0 -0.0 255 0 0
0.00015 0.04526 0.40374 1.0 -1.0 -0.0 255 0 0
-0.0009 0.04092 0.40421 0.0 0.0 1.0 255 0 0
-0.00689 0.04338 0.40791 0.0 -0.0 -1.0 255 0 0
-0.00134 0.04088 0.40434 0.0 0.0 1.0 255 0 0
-0.00923 0.0401 0.40603 0.0 0.0 -1.0 255 0 0
-0.00156 0.04193 0.40439 1.0 0.0 1.0 255 0 0
-0.00123 0.04153 0.40424 0.0 0.0 1.0 255 0 0
-0.00062 0.04045 0.40428 0.0 0.0 1.0 255 0 0
0.0006 0.04569 0.40395 1.0 -1.0 -0.0 255 0 0
-0.00941 0.03718 0.40602 0.0 0.0 -1.0 255 0 0
0.00028 0.04219 0.40422 0.0 0.0 1.0 255 0 0
-0.00062 0.04269 0.40431 1.0 0.0 1.0 255 0 0
0.00026 0.04088 0.40416 0.0 -0.0 -1.0 255 0 0
-0.01037 0.03749 0.40602 0.0 0.0 -1.0 255 0 0
-0.00794 0.04284 0.40786 0.0 0.0 -1.0 255 0 0
-0.00031 0.04337 0.40424 1.0 -0.0 1.0 255 0 0
-0.01067 0.04018 0.40604 0.0 0.0 -1.0 255 0 0
0.00138 0.0432 0.40416 0.0 -0.0 -1.0 255 0 0
0.00195 0.04348 0.40413 1.0 0.0 1.0 255 0 0
-0.00132 0.04027 0.40447 0.0 0.0 1.0 255 0 0
0.00341 0.04537 0.40464 1.0 1.0 -0.0 255 0 0
-0.0076 0.03717 0.40602 0.0 0.0 -1.0 255 0 0
-0.00137 0.0424 0.40425 1.0 -0.0 1.0 255 0 0
1e-05 0.04493 0.40409 1.0 -0.0 -0.0 255 0 0
-0.00176 0.04226 0.40455 1.0 -0.0 1.0 255 0 0
4e-05 0.04045 0.40434 0.0 -0.0 -1.0 255 0 0
-0.00527 0.03766 0.40601 0.0 0.0 1.0 255 0 0
-0.00015 0.04198 0.40434 0.0 0.0 1.0 255 0 0
-0.00045 0.0401 0.40446 0.0 -0.0 -1.0 255 0 0
-0.00584 0.03717 0.40601 0.0 -0.0 1.0 255 0 0
0.00146 0.04603 0.40431 0.0 -1.0 -0.0 255 0 0
-0.00118 0.04301 0.4043 1.0 -0.0 1.0 255 0 0
-0.00888 0.03937 0.40605 0.0 -0.0 1.0 255 0 0
0.00276 0.04476 0.40433 0.0 1.0 -1.0 255 0 0
0.00407 0.04448 0.40418 1.0 1.0 -0.0 255 0 0
0.00417 0.04389 0.40458 1.0 1.0 -0.0 255 0 0
0.00189 0.04288 0.40424 1.0 -0.0 -0.0 255 0 0
-0.00933 0.04209 0.4075 0.0 0.0 -1.0 255 0 0
-0.00832 0.03707 0.406 0.0 -0.0 1.0 255 0 0
-0.00176 0.04067 0.4045 0.0 0.0 1.0 255 0 0
0.00384 0.04501 0.40466 1.0 1.0 -0.0 255 0 0
0.00301 0.04558 0.40563 0.0 1.0 0.0 255 0 0
-0.00644 0.04176 0.40739 0.0 -1.0 1.0 255 0 0
-0.00657 0.03467 0.40448 0.0 1.0 -1.0 255 0 0
-0.00066 0.04222 0.40443 0.0 0.0 1.0 255 0 0
0.00065 0.04089 0.40431 0.0 -0.0 -1.0 255 0 0
-0.00101 0.04208 0.40467 0.0 0.0 1.0 255 0 0
-0.0101 0.04271 0.40752 0.0 0.0 -1.0 255 0 0
0.00311 0.04447 0.40428 0.0 1.0 -0.0 255 0 0
0.00471 0.04373 0.40487 0.0 1.0 -0.0 255 0 0
-0.00438 0.04546 0.40779 0.0 0.0 1.0 255 0 0
0.00077 0.04578 0.4044 0.0 -1.0 -0.0 255 0 0
-0.0011 0.04343 0.40444 1.0 -0.0 1.0 255 0 0
0.00173 0.04201 0.40465 1.0 -0.0 -1.0 255 0 0
-0.00383 0.04099 0.40597 0.0 -0.0 1.0 255 0 0
-0.00121 0.03984 0.40451 0.0 0.0 1.0 255 0 0
-0.00194 0.04118 0.40459 0.0 -0.0 1.0 255 0 0
0.00103 0.0446 0.40416 0.0 0.0 -1.0 255 0 0
-0.0053 0.03665 0.40595 0.0 -0.0 1.0 255 0 0
-0.00168 0.04011 0.40454 0.0 0.0 1.0 255 0 0
-0.00557 0.04218 0.40746 0.0 -1.0 1.0 255 0 0
-0.00461 0.03865 0.40597 0.0 -0.0 1.0 255 0 0
-0.00683 0.03711 0.40603 0.0 -0.0 1.0 255 0 0
-0.00611 0.03646 0.40595 0.0 0.0 -1.0 255 0 0
-0.00481 0.03921 0.40602 0.0 -0.0 1.0 255 0 0
0.0041 0.04361 0.40425 0.0 1.0 -0.0 255 0 0
-0.0018 0.04159 0.40453 0.0 0.0 1.0 255 0 0
-0.0045 0.04012 0.40599 0.0 -0.0 1.0 255 0 0
-0.00546 0.03465 0.40462 0.0 1.0 -1.0 255 0 0
0.00122 0.04482 0.40467 0.0 -1.0 1.0 255 0 0
0.00158 0.04495 0.40446 0.0 -1.0 1.0 255 0 0
0.00186 0.04502 0.4041 0.0 -0.0 1.0 255 0 0
-0.0045 0.03784 0.40595 0.0 -0.0 1.0 255 0 0
-0.00439 0.03465 0.40486 0.0 -0.0 1.0 255 0 0
0.00041 0.04037 0.40445 0.0 -1.0 -1.0 255 0 0
-0.00018 0.04156 0.40456 0.0 0.0 1.0 255 0 0
-0.00777 0.03658 0.40591 0.0 0.0 -1.0 255 0 0
4e-05 0.03993 0.40459 0.0 -0.0 -1.0 255 0 0
0.00141 0.04132 0.40476 1.0 -0.0 -1.0 255 0 0
0.00458 0.04404 0.4045 1.0 1.0 -0.0 255 0 0
-0.00891 0.04039 0.40613 0.0 -1.0 1.0 255 0 0
0.00102 0.04238 0.4044 0.0 -0.0 -1.0 255 0 0
0.00054 0.0444 0.40451 0.0 -1.0 0.0 255 0 0
-0.00022 0.04378 0.40458 1.0 -1.0 0.0 255 0 0
-0.0047 0.03744 0.40598 0.0 -0.0 1.0 255 0 0
-0.00079 0.04375 0.40423 1.0 -0.0 1.0 255 0 0
-0.01001 0.04227 0.40749 0.0 0.0 -1.0 255 0 0
0.00419 0.04456 0.40458 1.0 1.0 -0.0 255 0 0
-0.00209 0.04183 0.40471 1.0 -0.0 1.0 255 0 0
-0.00897 0.04463 0.40743 0.0 -0.0 -1.0 255 0 0
-0.00149 0.04289 0.40458 1.0 -0.0 1.0 255 0 0
-0.00097 0.03936 0.40465 0.0 -0.0 -1.0 255 0 0
-0.00071 0.04172 0.40462 0.0 0.0 1.0 255 0 0
-0.01111 0.04 0.40596 0.0 -0.0 1.0 255 0 0
-0.00469 0.03475 0.40456 0.0 1.0 -1.0 255 0 0
-0.00517 0.03714 0.40596 0.0 -0.0 1.0 255 0 0
0.00171 0.04316 0.40447 0.0 -0.0 -1.0 255 0 0
0.00178 0.04268 0.40466 0.0 -1.0 -1.0 255 0 0
0.00051 0.04179 0.40453 0.0 -0.0 -1.0 255 0 0
-0.01116 0.03927 0.40595 0.0 0.0 1.0 255 0 0
1e-05 0.04493 0.40469 1.0 -1.0 0.0 255 0 0
-0.00013 0.04454 0.40431 1.0 -1.0 0.0 255 0 0
0.00151 0.0416 0.40448 1.0 -0.0 -1.0 255 0 0
0.00266 0.04578 0.40498 0.0 1.0 0.0 255 0 0
-0.00544 0.04437 0.40767 0.0 0.0 1.0 255 0 0
-0.00141 0.04335 0.40477 1.0 -0.0 1.0 255 0 0
-0.00349 0.0437 0.40753 0.0 -0.0 1.0 255 0 0
-0.00993 0.04444 0.40618 0.0 1.0 -1.0 255 0 0
-0.01096 0.04409 0.40562 0.0 -1.0 1.0 255 0 0
-0.01048 0.04373 0.40565 0.0 1.0 -1.0 255 0 0
-0.00164 0.03912 0.40476 0.0 0.0 1.0 255 0 0
-0.00975 0.04327 0.40619 1.0 -0.0 -1.0 255 0 0
-0.01051 0.04329 0.40563 0.0 0.0 -1.0 255 0 0
-0.00546 0.04467 0.40717 0.0 1.0 1.0 255 0 0
-0.01079 0.04138 0.40603 1.0 0.0 -0.0 255 0 0
-0.01059 0.04216 0.40601 1.0 -0.0 -0.0 255 0 0
-0.01215 0.04331 0.40579 1.0 -1.0 0.0 255 0 0
-0.01312 0.0421 0.40608 1.0 -0.0 -0.0 255 0 0
0.00516 0.04441 0.40619 0.0 1.0 -0.0 255 0 0
0.00427 0.0442 0.40607 0.0 1.0 -0.0 255 0 0
-0.00234 0.04029 0.40476 0.0 -0.0 1.0 255 0 0
0.00281 0.04566 0.40601 0.0 1.0 0.0 255 0 0
-0.00123 0.03895 0.4048 0.0 -0.0 -1.0 255 0 0
0.00261 0.04497 0.40631 0.0 1.0 0.0 255 0 0
-0.00206 0.0395 0.40473 0.0 0.0 1.0 255 0 0
-0.00907 0.04252 0.40751 0.0 -0.0 -1.0 255 0 0
0.00148 0.04538 0.40546 0.0 -1.0 0.0 255 0 0
-0.00104 0.04138 0.40485 0.0 0.0 1.0 255 0 0
0.00183 0.04234 0.40442 1.0 -1.0 -1.0 255 0 0
0.00067 0.04537 0.40578 0.0 -1.0 0.0 255 0 0
0.00374 0.04418 0.40485 1.0 1.0 -0.0 255 0 0
0.00037 0.04574 0.40589 0.0 -1.0 0.0 255 0 0
0.00016 0.04527 0.40426 1.0 -1.0 0.0 255 0 0
-0.00054 0.03955 0.40464 0.0 -0.0 -1.0 255 0 0
-0.00197 0.04266 0.40583 1.0 -0.0 1.0 255 0 0
-0.00624 0.03472 0.40471 0.0 1.0 -1.0 255 0 0
-0.00678 0.04035 0.40594 0.0 -0.0 1.0 255 0 0
-0.00093 0.04253 0.40464 1.0 -0.0 1.0 255 0 0
-0.00336 0.04228 0.40593 0.0 -1.0 1.0 255 0 0
-0.00366 0.04188 0.40587 0.0 -0.0 1.0 255 0 0
-0.00356 0.04454 0.40763 0.0 -0.0 1.0 255 0 0
-0.01248 0.03831 0.40588 0.0 1.0 -1.0 255 0 0
-0.00062 0.04305 0.40451 1.0 -0.0 1.0 255 0 0
7e-05 0.04117 0.40478 0.0 -0.0 -1.0 255 0 0
0.00437 0.04394 0.40499 1.0 1.0 -0.0 255 0 0
0.0045 0.0436 0.40448 1.0 1.0 -0.0 255 0 0
-0.01202 0.03816 0.40481 1.0 0.0 -1.0 255 0 0
-0.01172 0.03715 0.4047 1.0 1.0 -1.0 255 0 0
-0.01245 0.03997 0.40458 0.0 -0.0 -1.0 255 0 0
-0.01291 0.03948 0.40467 0.0 0.0 1.0 255 0 0
-0.01308 0.04046 0.40464 1.0 0.0 1.0 255 0 0
-0.01177 0.04143 0.40491 0.0 0.0 -1.0 255 0 0
-0.01213 0.03956 0.40469 0.0 -0.0 -1.0 255 0 0
-0.01297 0.03997 0.40462 0.0 0.0 1.0 255 0 0
-0.01264 0.04033 0.40455 0.0 -0.0 1.0 255 0 0
-0.00252 0.03973 0.40482 0.0 -0.0 1.0 255 0 0
-0.00223 0.04086 0.4047 0.0 -0.0 1.0 255 0 0
-0.00581 0.03677 0.40595 0.0 -0.0 1.0 255 0 0
-0.00439 0.04357 0.40782 0.0 -0.0 1.0 255 0 0
-0.00151 0.03867 0.40488 0.0 -0.0 -1.0 255 0 0
-0.0025 0.04521 0.40743 0.0 -0.0 1.0 255 0 0
-0.01098 0.03962 0.40558 0.0 -0.0 -1.0 255 0 0
-0.0054 0.03504 0.40489 0.0 1.0 -1.0 255 0 0
-0.00094 0.04412 0.40494 1.0 -1.0 0.0 255 0 0
-0.00036 0.04461 0.40514 1.0 -1.0 0.0 255 0 0
0.00137 0.0451 0.40507 0.0 -1.0 0.0 255 0 0
-0.00711 0.03673 0.40595 0.0 -0.0 1.0 255 0 0
-0.01048 0.03842 0.40598 0.0 0.0 -1.0 255 0 0
-0.00269 0.04048 0.40491 0.0 -0.0 1.0 255 0 0
-0.00279 0.04001 0.4049 0.0 -0.0 1.0 255 0 0
-0.00817 0.03517 0.40476 0.0 1.0 -1.0 255 0 0
-0.00957 0.03992 0.40594 0.0 0.0 -1.0 255 0 0
-0.00051 0.04434 0.40468 1.0 -1.0 0.0 255 0 0
0.00078 0.04021 0.40484 0.0 -0.0 -1.0 255 0 0
-0.00202 0.03892 0.40482 0.0 0.0 1.0 255 0 0
-0.01007 0.03814 0.40592 0.0 -0.0 1.0 255 0 0
0.00109 0.04206 0.40477 0.0 -0.0 -1.0 255 0 0
-0.00075 0.03907 0.40481 0.0 -0.0 -1.0 255 0 0
0.00134 0.0427 0.40463 0.0 -0.0 -1.0 255 0 0
-0.00506 0.03468 0.4048 0.0 -1.0 1.0 255 0 0
0.00336 0.04444 0.40494 0.0 1.0 -0.0 255 0 0
-0.00903 0.03537 0.40483 0.0 1.0 -1.0 255 0 0
-0.00288 0.04171 0.40585 0.0 -0.0 1.0 255 0 0
0.00114 0.04593 0.40467 0.0 -1.0 -0.0 255 0 0
-0.01363 0.04072 0.40504 1.0 -0.0 0.0 255 0 0
0.0028 0.04489 0.40549 0.0 1.0 -0.0 255 0 0
-0.00091 0.04292 0.40484 1.0 -0.0 1.0 255 0 0
0.00256 0.04589 0.40451 0.0 1.0 0.0 255 0 0
-0.00327 0.04135 0.4059 0.0 -0.0 1.0 255 0 0
-0.00769 0.04572 0.40725 0.0 -1.0 -1.0 255 0 0
-0.01041 0.03794 0.40593 0.0 0.0 -1.0 255 0 0
-0.00136 0.04112 0.40501 0.0 0.0 1.0 255 0 0
-0.0069 0.04558 0.40761 0.0 -0.0 -1.0 255 0 0
-0.01087 0.03775 0.4059 0.0 0.0 -1.0 255 0 0
-0.00402 0.03944 0.4059 0.0 0.0 1.0 255 0 0
-0.00285 0.03941 0.40493 0.0 0.0 1.0 255 0 0
-0.00243 0.03906 0.40488 0.0 0.0 1.0 255 0 0
-0.00484 0.03668 0.40591 0.0 -0.0 1.0 255 0 0
-0.00413 0.03904 0.40592 0.0 -0.0 1.0 255 0 0
-0.00862 0.0451 0.40738 0.0 -1.0 -1.0 255 0 0
0.0033 0.04545 0.40803 0.0 1.0 -0.0 255 0 0
0.00405 0.04466 0.40763 0.0 1.0 -0.0 255 0 0
-0.00266 0.04096 0.40493 1.0 -0.0 1.0 255 0 0
-0.0029 0.03893 0.40499 0.0 0.0 1.0 255 0 0
-0.00615 0.04585 0.40753 0.0 -0.0 -1.0 255 0 0
0.00359 0.04495 0.40798 0.0 1.0 -0.0 255 0 0
-0.00128 0.04379 0.40497 1.0 -1.0 1.0 255 0 0
-0.00052 0.0409 0.40488 0.0 0.0 1.0 255 0 0
-0.00877 0.04296 0.40739 0.0 -0.0 -1.0 255 0 0
-0.00583 0.04624 0.40736 0.0 -1.0 -1.0 255 0 0
-0.00413 0.03835 0.40593 0.0 -0.0 1.0 255 0 0
-0.00713 0.03521 0.40494 0.0 1.0 -1.0 255 0 0
-0.00724 0.03497 0.4046 0.0 1.0 -1.0 255 0 0
-0.01069 0.03951 0.40583 0.0 -0.0 -1.0 255 0 0
-0.01003 0.03586 0.40484 0.0 1.0 -1.0 255 0 0
1e-05 0.03958 0.4048 0.0 -0.0 -1.0 255 0 0
-0.01337 0.04014 0.40473 1.0 0.0 1.0 255 0 0
-0.00501 0.03512 0.40513 0.0 -1.0 1.0 255 0 0
0.00102 0.04068 0.40469 0.0 -0.0 -1.0 255 0 0
-0.00782 0.03527 0.40492 0.0 1.0 -1.0 255 0 0
-0.00053 0.0436 0.40485 1.0 -1.0 0.0 255 0 0
0.00099 0.04597 0.40744 0.0 1.0 -0.0 255 0 0
-0.00349 0.03494 0.40499 0.0 0.0 -1.0 255 0 0
-0.00176 0.04387 0.4057 1.0 -1.0 1.0 255 0 0
-0.01101 0.03643 0.40499 0.0 1.0 -1.0 255 0 0
0.00092 0.04167 0.40487 0.0 -0.0 -1.0 255 0 0
-0.01059 0.03619 0.40494 0.0 1.0 -1.0 255 0 0
-0.00186 0.0427 0.40484 1.0 -0.0 1.0 255 0 0
0.0015 0.04235 0.40488 0.0 -0.0 -1.0 255 0 0
0.00021 0.0454 0.40505 1.0 -1.0 0.0 255 0 0
-0.00784 0.04329 0.40757 0.0 -0.0 -1.0 255 0 0
-0.00376 0.03817 0.40588 0.0 -0.0 1.0 255 0 0
-0.01141 0.0367 0.40473 0.0 1.0 -1.0 255 0 0
-0.01192 0.03757 0.40475 1.0 0.0 -1.0 255 0 0
-0.01247 0.03835 0.40483 0.0 0.0 1.0 255 0 0
-0.0116 0.03815 0.40527 1.0 0.0 -1.0 255 0 0
-0.01283 0.03908 0.40475 0.0 0.0 1.0 255 0 0
-0.01252 0.0388 0.40477 0.0 0.0 1.0 255 0 0
-0.00543 0.04358 0.40778 0.0 -0.0 1.0 255 0 0
-0.0018 0.04321 0.40505 1.0 -0.0 1.0 255 0 0
0.0044 0.04451 0.40725 0.0 1.0 -0.0 255 0 0
-0.00829 0.03663 0.40588 0.0 0.0 -1.0 255 0 0
-0.00553 0.04076 0.40591 0.0 -0.0 1.0 255 0 0
-0.00379 0.04049 0.40587 0.0 -0.0 1.0 255 0 0
-0.00322 0.03957 0.40505 0.0 0.0 1.0 255 0 0
-0.00424 0.03732 0.40591 0.0 -0.0 1.0 255 0 0
-0.00906 0.03971 0.40575 0.0 0.0 -1.0 255 0 0
-0.00386 0.04009 0.40589 0.0 -0.0 1.0 255 0 0
0.0058 0.04431 0.40724 0.0 1.0 -0.0 255 0 0
-0.00579 0.03503 0.40489 0.0 1.0 -1.0 255 0 0
-0.00275 0.0416 0.40506 1.0 -0.0 1.0 255 0 0
-0.00255 0.04196 0.4051 1.0 -0.0 1.0 255 0 0
-0.00364 0.04503 0.40777 0.0 0.0 1.0 255 0 0
-0.0064 0.04312 0.4078 0.0 0.0 -1.0 255 0 0
-0.00148 0.04216 0.40502 1.0 -0.0 1.0 255 0 0
-0.00473 0.04635 0.40737 0.0 1.0 1.0 255 0 0
-0.00333 0.03915 0.40507 0.0 0.0 1.0 255 0 0
0.00041 0.04667 0.40741 0.0 1.0 -0.0 255 0 0
-0.00727 0.04266 0.40782 0.0 -0.0 1.0 255 0 0
-0.00372 0.04419 0.40776 0.0 -0.0 1.0 255 0 0
-0.00398 0.04511 0.40697 0.0 -1.0 -1.0 255 0 0
-0.00675 0.035 0.40492 0.0 1.0 -1.0 255 0 0
-0.00627 0.03508 0.40494 0.0 1.0 -1.0 255 0 0
-0.00124 0.04267 0.40507 1.0 -0.0 1.0 255 0 0
-0.01354 0.04115 0.40504 1.0 -0.0 0.0 255 0 0
-0.00503 0.03612 0.40583 0.0 -0.0 1.0 255 0 0
-0.00675 0.04403 0.40743 0.0 -0.0 -1.0 255 0 0
-0.00399 0.03465 0.40491 0.0 0.0 -1.0 255 0 0
-0.0063 0.04403 0.40768 0.0 -0.0 -1.0 255 0 0
0.00056 0.03962 0.40507 0.0 -0.0 -1.0 255 0 0
0.00021 0.03903 0.40528 0.0 -0.0 -1.0 255 0 0
-0.01081 0.04086 0.40581 1.0 0.0 -0.0 255 0 0
-0.00033 0.03912 0.4049 0.0 -0.0 -1.0 255 0 0
0.00045 0.03995 0.40479 0.0 -0.0 -1.0 255 0 0
0.00375 0.04525 0.40586 0.0 1.0 -0.0 255 0 0
-0.01167 0.03693 0.40512 0.0 1.0 -1.0 255 0 0
0.00115 0.04122 0.40513 0.0 -0.0 -1.0 255 0 0
0.00157 0.04588 0.40611 0.0 1.0 -0.0 255 0 0
0.00143 0.0417 0.40494 1.0 -0.0 -1.0 255 0 0
0.00074 0.0447 0.40489 0.0 -1.0 1.0 255 0 0
-0.0094 0.03563 0.40488 0.0 1.0 -1.0 255 0 0
0.00047 0.04559 0.40473 1.0 -1.0 0.0 255 0 0
0.00242 0.04508 0.40457 0.0 1.0 0.0 255 0 0
0.001 0.04585 0.40522 0.0 -1.0 -0.0 255 0 0
-0.00772 0.03993 0.40582 0.0 -0.0 1.0 255 0 0
0.00305 0.04459 0.40473 0.0 1.0 -0.0 255 0 0
-0.00723 0.04011 0.40588 0.0 -0.0 1.0 255 0 0
-0.00213 0.04226 0.40487 1.0 -0.0 1.0 255 0 0
-0.00147 0.04345 0.40593 1.0 -0.0 1.0 255 0 0
-0.00304 0.03814 0.40512 0.0 0.0 1.0 255 0 0
-0.00018 0.04485 0.40583 1.0 -1.0 1.0 255 0 0
-0.00099 0.04395 0.40591 1.0 -1.0 1.0 255 0 0
-0.0041 0.04398 0.40784 0.0 -0.0 1.0 255 0 0
-0.00853 0.04177 0.40752 0.0 0.0 -1.0 255 0 0
-0.00044 0.04023 0.40512 0.0 -0.0 -1.0 255 0 0
-0.00367 0.03904 0.40583 0.0 -0.0 1.0 255 0 0
-0.00122 0.04175 0.40487 0.0 0.0 1.0 255 0 0
-0.00324 0.03857 0.40508 0.0 0.0 1.0 255 0 0
-0.00348 0.03866 0.40582 0.0 -0.0 1.0 255 0 0
-0.00256 0.0385 0.40502 0.0 0.0 1.0 255 0 0
-0.00307 0.04071 0.40508 0.0 -0.0 1.0 255 0 0
-0.00975 0.03898 0.40576 0.0 -0.0 -1.0 255 0 0
-0.00955 0.03862 0.40583 0.0 0.0 1.0 255 0 0
-0.00357 0.03765 0.40581 0.0 0.0 1.0 255 0 0
-0.00387 0.04537 0.40775 0.0 0.0 1.0 255 0 0
-0.01028 0.03971 0.40573 0.0 0.0 -1.0 255 0 0
-0.00338 0.04013 0.40515 0.0 -0.0 1.0 255 0 0
-0.00701 0.03631 0.40586 0.0 0.0 -1.0 255 0 0
-0.00345 0.03721 0.40577 0.0 0.0 1.0 255 0 0
-0.00459 0.04396 0.40774 0.0 -0.0 1.0 255 0 0
-0.01027 0.03924 0.4058 0.0 0.0 1.0 255 0 0
-0.00192 0.038 0.40508 0.0 -0.0 -1.0 255 0 0
-0.0039 0.03706 0.40583 0.0 -0.0 1.0 255 0 0
-0.00377 0.03935 0.40517 0.0 0.0 1.0 255 0 0
0.00063 0.04573 0.40529 0.0 -1.0 0.0 255 0 0
-0.00129 0.03774 0.40521 0.0 -0.0 -1.0 255 0 0
-0.00925 0.0381 0.40584 0.0 0.0 -1.0 255 0 0
0.00158 0.046 0.40471 0.0 -1.0 -0.0 255 0 0
-0.00137 0.03829 0.40503 0.0 -0.0 -1.0 255 0 0
0.00271 0.0449 0.40487 0.0 1.0 -0.0 255 0 0
-0.00995 0.04001 0.40578 0.0 0.0 -1.0 255 0 0
-0.00089 0.03846 0.40504 0.0 -0.0 -1.0 255 0 0
0.00306 0.04558 0.40496 1.0 1.0 -0.0 255 0 0
-0.00079 0.04359 0.40526 1.0 -1.0 0.0 255 0 0
-0.0044 0.03651 0.40581 0.0 -0.0 1.0 255 0 0
-0.00882 0.04315 0.40777 0.0 -0.0 -1.0 255 0 0
-0.00938 0.03759 0.40581 0.0 0.0 -1.0 255 0 0
0.0002 0.04436 0.40484 1.0 -1.0 0.0 255 0 0
0.00085 0.04 0.40526 0.0 -0.0 -1.0 255 0 0
-0.00851 0.03827 0.40575 0.0 0.0 1.0 255 0 0
-0.00236 0.03793 0.40511 0.0 -0.0 -1.0 255 0 0
-0.01363 0.0396 0.40515 1.0 0.0 0.0 255 0 0
-0.00115 0.04076 0.40503 0.0 0.0 1.0 255 0 0
-0.00963 0.03585 0.40518 0.0 1.0 -1.0 255 0 0
-0.01363 0.041 0.40562 1.0 -0.0 -0.0 255 0 0
-0.00859 0.03522 0.4049 0.0 1.0 -1.0 255 0 0
-0.00165 0.04087 0.40515 0.0 0.0 1.0 255 0 0
-0.00815 0.03547 0.40528 0.0 1.0 -1.0 255 0 0
-2e-05 0.04056 0.40503 0.0 -0.0 -1.0 255 0 0
-0.00581 0.03591 0.40581 0.0 -0.0 1.0 255 0 0
-0.00316 0.04139 0.40527 0.0 -0.0 1.0 255 0 0
-0.0086 0.03775 0.40576 0.0 -0.0 1.0 255 0 0
-0.00227 0.04268 0.40517 1.0 -0.0 1.0 255 0 0
0.00067 0.04081 0.40513 0.0 -0.0 -1.0 255 0 0
-0.01104 0.03696 0.40493 0.0 1.0 -1.0 255 0 0
-0.01145 0.03776 0.40521 1.0 0.0 -1.0 255 0 0
-0.01238 0.03918 0.40471 0.0 -0.0 -1.0 255 0 0
-0.01261 0.03805 0.40505 1.0 1.0 -0.0 255 0 0
-0.00209 0.04231 0.40566 1.0 -0.0 1.0 255 0 0
-0.01302 0.04124 0.4048 1.0 -0.0 1.0 255 0 0
-0.01156 0.0422 0.40518 0.0 0.0 -1.0 255 0 0
-0.01344 0.03916 0.4051 1.0 0.0 0.0 255 0 0
-0.01193 0.04017 0.40469 0.0 -0.0 -1.0 255 0 0
-0.01154 0.04033 0.40486 1.0 -0.0 -1.0 255 0 0
-0.01192 0.03879 0.40498 1.0 -0.0 -1.0 255 0 0
-0.01183 0.03923 0.40571 1.0 -0.0 0.0 255 0 0
-0.01166 0.03951 0.40499 1.0 -0.0 -1.0 255 0 0
-0.01232 0.04065 0.4046 0.0 0.0 -1.0 255 0 0
-0.01207 0.04107 0.40473 0.0 0.0 -1.0 255 0 0
-0.01146 0.04089 0.40496 1.0 0.0 -1.0 255 0 0
-0.01213 0.04174 0.40494 0.0 -0.0 1.0 255 0 0
-0.01334 0.0408 0.40477 1.0 -0.0 1.0 255 0 0
-0.00252 0.04202 0.40585 1.0 -0.0 1.0 255 0 0
-0.00496 0.04317 0.40781 0.0 -0.0 1.0 255 0 0
-0.00882 0.04271 0.40778 0.0 -0.0 -1.0 255 0 0
-0.00286 0.03725 0.40523 0.0 0.0 1.0 255 0 0
-0.00256 0.03752 0.40518 0.0 0.0 1.0 255 0 0
-0.0021 0.03738 0.4052 0.0 -0.0 -1.0 255 0 0
-0.0034 0.0403 0.40578 0.0 -0.0 1.0 255 0 0
-0.00496 0.04091 0.40581 0.0 -0.0 1.0 255 0 0
-0.00109 0.04033 0.40514 0.0 0.0 1.0 255 0 0
-0.0099 0.03941 0.40575 0.0 -0.0 -1.0 255 0 0
-0.00166 0.04024 0.40525 0.0 0.0 1.0 255 0 0
-0.00314 0.03977 0.40572 0.0 0.0 1.0 255 0 0
-0.00318 0.0391 0.40576 0.0 0.0 1.0 255 0 0
-0.00347 0.03958 0.40581 0.0 -0.0 1.0 255 0 0
-0.002 0.04143 0.40522 0.0 -0.0 1.0 255 0 0
-0.00899 0.03657 0.40583 0.0 0.0 -1.0 255 0 0
-0.00749 0.04476 0.40779 0.0 0.0 -1.0 255 0 0
-0.004 0.03875 0.40524 0.0 0.0 1.0 255 0 0
-0.01151 0.04388 0.40558 0.0 -1.0 1.0 255 0 0
-0.01088 0.04181 0.40569 1.0 -0.0 -1.0 255 0 0
-0.01114 0.04193 0.40539 1.0 -0.0 -1.0 255 0 0
0.00524 0.04382 0.40556 0.0 1.0 -0.0 255 0 0
-0.00075 0.03872 0.40548 0.0 -0.0 -1.0 255 0 0
-0.01186 0.03873 0.40589 0.0 0.0 -1.0 255 0 0
-0.01176 0.0391 0.40523 1.0 -0.0 -1.0 255 0 0
-0.00058 0.03793 0.40553 0.0 -0.0 -1.0 255 0 0
0.00376 0.04437 0.40585 0.0 1.0 -0.0 255 0 0
-0.00336 0.04575 0.40754 0.0 0.0 1.0 255 0 0
-0.00086 0.03999 0.40519 0.0 0.0 1.0 255 0 0
0.00189 0.04591 0.40584 0.0 1.0 0.0 255 0 0
-0.00628 0.0424 0.40769 0.0 -0.0 1.0 255 0 0
-0.00212 0.04364 0.40582 1.0 -1.0 1.0 255 0 0
0.00534 0.0442 0.4058 0.0 1.0 -0.0 255 0 0
-0.00639 0.03996 0.40572 0.0 -0.0 1.0 255 0 0
-0.00177 0.03692 0.40566 0.0 -0.0 -1.0 255 0 0
-0.00376 0.03765 0.40526 0.0 0.0 1.0 255 0 0
-0.00944 0.03925 0.40567 0.0 -0.0 -1.0 255 0 0
-0.00859 0.03965 0.40575 0.0 0.0 -1.0 255 0 0
-0.00217 0.03633 0.40561 0.0 0.0 -1.0 255 0 0
0.00458 0.04502 0.40774 0.0 1.0 -0.0 255 0 0
-0.00254 0.03678 0.40523 0.0 -0.0 -1.0 255 0 0
-0.01168 0.03837 0.40578 0.0 0.0 -1.0 255 0 0
-0.00598 0.03972 0.40568 0.0 -0.0 1.0 255 0 0
-0.01198 0.03777 0.40579 0.0 0.0 -1.0 255 0 0
-0.00769 0.03613 0.4058 0.0 0.0 -1.0 255 0 0
-0.00333 0.03769 0.4052 0.0 0.0 1.0 255 0 0
-0.00371 0.03809 0.40521 0.0 0.0 1.0 255 0 0
-0.00475 0.03578 0.40565 0.0 -0.0 1.0 255 0 0
-0.00906 0.03877 0.40577 0.0 0.0 1.0 255 0 0
-0.00452 0.03503 0.40499 0.0 -0.0 1.0 255 0 0
-0.0128 0.03818 0.4055 1.0 1.0 -0.0 255 0 0
-0.01298 0.03852 0.40509 1.0 1.0 0.0 255 0 0
-0.00156 0.03726 0.40525 0.0 -0.0 -1.0 255 0 0
-0.00313 0.0355 0.40521 0.0 -0.0 1.0 255 0 0
-0.00355 0.03542 0.40514 0.0 -0.0 1.0 255 0 0
-0.00059 0.04405 0.40553 1.0 -1.0 0.0 255 0 0
-0.00048 0.03835 0.40524 0.0 -0.0 -1.0 255 0 0
-0.00878 0.03729 0.40573 0.0 0.0 -1.0 255 0 0
-0.00109 0.04359 0.40567 1.0 -0.0 1.0 255 0 0
-0.00429 0.04438 0.40778 0.0 0.0 1.0 255 0 0
-0.00019 0.03878 0.40514 0.0 -0.0 -1.0 255 0 0
-0.00812 0.04427 0.40774 0.0 -0.0 -1.0 255 0 0
-0.01109 0.03721 0.40559 0.0 0.0 -1.0 255 0 0
0.00182 0.04517 0.4048 0.0 -1.0 0.0 255 0 0
0.00031 0.04028 0.40523 0.0 -0.0 -1.0 255 0 0
-0.00258 0.04155 0.40555 1.0 -0.0 1.0 255 0 0
0.00147 0.04594 0.40519 0.0 -1.0 -0.0 255 0 0
0.00223 0.04596 0.40482 0.0 1.0 0.0 255 0 0
-0.00625 0.03584 0.40576 0.0 0.0 -1.0 255 0 0
-0.00309 0.04079 0.40568 0.0 -0.0 1.0 255 0 0
0.00378 0.04515 0.40513 1.0 1.0 -0.0 255 0 0
-0.00348 0.04078 0.40578 0.0 -0.0 1.0 255 0 0
0.00453 0.0445 0.40522 1.0 1.0 -0.0 255 0 0
-0.0039 0.04037 0.40535 0.0 -0.0 1.0 255 0 0
-0.00373 0.036 0.40527 0.0 -0.0 1.0 255 0 0
-0.0107 0.03738 0.40576 0.0 0.0 -1.0 255 0 0
-0.00967 0.04267 0.4076 0.0 -0.0 -1.0 255 0 0
-0.00208 0.03694 0.40527 0.0 -0.0 -1.0 255 0 0
-0.00124 0.03977 0.40527 0.0 0.0 1.0 255 0 0
-0.00339 0.03627 0.40528 0.0 0.0 -1.0 255 0 0
-0.00606 0.04028 0.40579 0.0 -0.0 1.0 255 0 0
-0.00144 0.03938 0.40537 0.0 0.0 1.0 255 0 0
-0.00864 0.04364 0.40777 0.0 -0.0 -1.0 255 0 0
-0.00742 0.03888 0.40568 0.0 0.0 1.0 255 0 0
-0.00797 0.03954 0.40571 0.0 -0.0 1.0 255 0 0
-0.00688 0.03983 0.40573 0.0 -0.0 1.0 255 0 0
-0.00709 0.03862 0.40563 0.0 0.0 1.0 255 0 0
-0.00439 0.0391 0.40529 0.0 -0.0 1.0 255 0 0
-0.00385 0.03978 0.40524 0.0 -0.0 1.0 255 0 0
-0.00398 0.03698 0.40532 0.0 -0.0 1.0 255 0 0
-0.00788 0.0387 0.40568 0.0 -0.0 -1.0 255 0 0
-0.00425 0.04004 0.40539 0.0 -0.0 1.0 255 0 0
-0.00845 0.0387 0.40572 0.0 0.0 1.0 255 0 0
-0.00837 0.03927 0.40568 0.0 -0.0 1.0 255 0 0
-0.00349 0.03608 0.40563 0.0 -0.0 1.0 255 0 0
-0.00906 0.04363 0.40767 0.0 -0.0 -1.0 255 0 0
-0.00393 0.03527 0.40522 0.0 -0.0 1.0 255 0 0
-0.0041 0.03743 0.40531 0.0 0.0 1.0 255 0 0
-0.00438 0.03785 0.40532 0.0 -0.0 1.0 255 0 0
-0.00349 0.03677 0.40532 0.0 -0.0 1.0 255 0 0
-0.00423 0.03633 0.4054 0.0 -0.0 1.0 255 0 0
-0.00874 0.03906 0.40569 0.0 0.0 -1.0 255 0 0
-0.00778 0.03812 0.40569 0.0 -0.0 1.0 255 0 0
-0.00996 0.03621 0.40522 0.0 0.0 -1.0 255 0 0
-0.0038 0.03641 0.40535 0.0 -0.0 1.0 255 0 0
-0.00881 0.03562 0.40525 0.0 1.0 -1.0 255 0 0
-0.00486 0.03856 0.40536 0.0 -0.0 1.0 255 0 0
-0.00818 0.03786 0.4057 0.0 -0.0 1.0 255 0 0
-0.00263 0.03702 0.40569 0.0 0.0 1.0 255 0 0
-0.00399 0.0415 0.40581 0.0 -0.0 1.0 255 0 0
-0.00452 0.04102 0.40573 0.0 -0.0 1.0 255 0 0
-0.00595 0.03541 0.40551 0.0 1.0 -1.0 255 0 0
-0.00429 0.03958 0.40532 0.0 -0.0 1.0 255 0 0
-0.00999 0.03722 0.40572 0.0 0.0 -1.0 255 0 0
-0.00542 0.04034 0.4057 0.0 -0.0 1.0 255 0 0
-0.00647 0.04538 0.40778 0.0 -0.0 -1.0 255 0 0
-0.00453 0.03826 0.40535 0.0 0.0 1.0 255 0 0
-0.0072 0.04227 0.40766 0.0 -0.0 1.0 255 0 0
-0.00875 0.0423 0.40768 0.0 0.0 -1.0 255 0 0
-0.00209 0.04309 0.40529 1.0 -0.0 1.0 255 0 0
-0.00197 0.04349 0.40549 1.0 -1.0 0.0 255 0 0
-0.00791 0.04241 0.4076 0.0 0.0 -1.0 255 0 0
-0.00928 0.04293 0.40771 0.0 -0.0 -1.0 255 0 0
-0.00566 0.03567 0.40534 0.0 -0.0 1.0 255 0 0
-0.00272 0.0387 0.40568 0.0 -0.0 1.0 255 0 0
0.00542 0.04422 0.4086 0.0 1.0 0.0 255 0 0
0.00546 0.04421 0.40747 0.0 1.0 -0.0 255 0 0
-0.00179 0.03658 0.40539 0.0 -0.0 -1.0 255 0 0
-0.0031 0.03664 0.40571 0.0 -0.0 1.0 255 0 0
-0.00293 0.03815 0.4057 0.0 0.0 1.0 255 0 0
0.00092 0.04675 0.40811 1.0 1.0 -0.0 255 0 0
-0.00137 0.04404 0.40542 1.0 -1.0 0.0 255 0 0
-0.00185 0.04589 0.40744 0.0 0.0 1.0 255 0 0
0.00465 0.04409 0.40579 0.0 1.0 -0.0 255 0 0
0.00418 0.04409 0.40544 0.0 1.0 -0.0 255 0 0
-0.00118 0.03721 0.40556 0.0 -0.0 -1.0 255 0 0
0.00183 0.04535 0.4061 0.0 1.0 -0.0 255 0 0
-0.00013 0.04425 0.4051 1.0 -1.0 0.0 255 0 0
0.00146 0.0459 0.40564 0.0 1.0 0.0 255 0 0
-0.00243 0.03608 0.40536 0.0 -0.0 1.0 255 0 0
0.00094 0.04514 0.40548 0.0 -1.0 0.0 255 0 0
0.00032 0.04511 0.40582 0.0 -1.0 1.0 255 0 0
0.0 0.04531 0.40562 0.0 -1.0 1.0 255 0 0
-3e-05 0.04501 0.4052 1.0 -1.0 0.0 255 0 0
0.00025 0.0448 0.40547 1.0 -1.0 1.0 255 0 0
0.00505 0.04444 0.4075 0.0 1.0 -0.0 255 0 0
-0.00129 0.03801 0.40559 0.0 -0.0 -1.0 255 0 0
-0.00099 0.03767 0.40564 0.0 -0.0 -1.0 255 0 0
-0.01064 0.04049 0.40564 1.0 0.0 -1.0 255 0 0
-0.00518 0.03561 0.40529 0.0 -0.0 1.0 255 0 0
-0.00772 0.03562 0.40525 0.0 0.0 -1.0 255 0 0
0.00029 0.03938 0.4055 0.0 -0.0 -1.0 255 0 0
-0.00511 0.04456 0.4075 0.0 0.0 1.0 255 0 0
-0.0116 0.03752 0.40577 0.0 1.0 -1.0 255 0 0
0.00476 0.04417 0.40495 1.0 1.0 -0.0 255 0 0
-0.00349 0.04153 0.40553 0.0 -0.0 1.0 255 0 0
0.00392 0.04517 0.40738 0.0 1.0 -0.0 255 0 0
0.00125 0.04079 0.40501 1.0 -0.0 -1.0 255 0 0
-0.01318 0.03882 0.40599 1.0 1.0 -1.0 255 0 0
-0.01334 0.03877 0.40553 1.0 1.0 -0.0 255 0 0
-0.01293 0.03849 0.4058 1.0 1.0 -0.0 255 0 0
0.00185 0.04533 0.4056 0.0 1.0 -0.0 255 0 0
0.00247 0.04508 0.40532 0.0 1.0 -0.0 255 0 0
-0.01129 0.03992 0.40507 1.0 -0.0 -1.0 255 0 0
-0.01079 0.04019 0.40536 1.0 -0.0 -1.0 255 0 0
-0.01044 0.04009 0.40554 0.0 0.0 -1.0 255 0 0
-0.00176 0.03907 0.40543 0.0 0.0 1.0 255 0 0
-0.00528 0.03804 0.40541 0.0 -0.0 1.0 255 0 0
-0.00556 0.03976 0.40562 0.0 -0.0 1.0 255 0 0
-0.0018 0.03962 0.40539 0.0 0.0 1.0 255 0 0
-0.00201 0.04001 0.40539 0.0 0.0 1.0 255 0 0
0.00489 0.04484 0.40749 0.0 1.0 -0.0 255 0 0
-0.00343 0.03568 0.40547 0.0 -0.0 1.0 255 0 0
-0.00649 0.03951 0.40565 0.0 -0.0 1.0 255 0 0
-0.00752 0.0436 0.40761 0.0 -0.0 -1.0 255 0 0
-0.00227 0.04069 0.40541 0.0 0.0 1.0 255 0 0
-0.00483 0.04512 0.40677 0.0 -1.0 -1.0 255 0 0
-0.00137 0.03894 0.40542 0.0 0.0 1.0 255 0 0
-0.00703 0.03933 0.40565 0.0 -0.0 1.0 255 0 0
-0.00827 0.04298 0.40756 0.0 -0.0 -1.0 255 0 0
-0.00586 0.04293 0.40761 0.0 -0.0 1.0 255 0 0
-0.00223 0.03776 0.40564 0.0 -0.0 -1.0 255 0 0
-0.00738 0.03951 0.40568 0.0 -0.0 1.0 255 0 0
-0.00732 0.03818 0.40565 0.0 -0.0 1.0 255 0 0
-0.00221 0.03716 0.40565 0.0 0.0 1.0 255 0 0
0.00172 0.04544 0.40767 0.0 1.0 -0.0 255 0 0
-0.00575 0.04555 0.40775 0.0 0.0 1.0 255 0 0
-0.00421 0.04609 0.4075 0.0 -0.0 -1.0 255 0 0
-0.00453 0.03594 0.40534 0.0 -0.0 1.0 255 0 0
0.0022 0.04573 0.40787 0.0 1.0 -0.0 255 0 0
-0.00563 0.03517 0.40529 0.0 1.0 -1.0 255 0 0
0.00175 0.04583 0.40747 0.0 1.0 -0.0 255 0 0
-0.00388 0.04483 0.40749 0.0 0.0 1.0 255 0 0
-0.00224 0.03836 0.40562 0.0 0.0 1.0 255 0 0
-0.0098 0.03685 0.40561 0.0 0.0 -1.0 255 0 0
-0.00276 0.04003 0.40562 0.0 0.0 1.0 255 0 0
-0.00471 0.03763 0.40536 0.0 0.0 1.0 255 0 0
-0.00738 0.03743 0.40562 0.0 -0.0 1.0 255 0 0
-0.01051 0.03661 0.40549 0.0 0.0 -1.0 255 0 0
-0.00554 0.03742 0.40545 0.0 -0.0 1.0 255 0 0
-0.00287 0.03751 0.4057 0.0 0.0 1.0 255 0 0
-0.00488 0.04054 0.40563 0.0 -0.0 1.0 255 0 0
-0.00783 0.03713 0.40565 0.0 0.0 -1.0 255 0 0
-0.00588 0.03807 0.40548 0.0 -0.0 1.0 255 0 0
-0.00566 0.03878 0.40548 0.0 -0.0 1.0 255 0 0
-0.00278 0.03952 0.40562 0.0 -0.0 1.0 255 0 0
-0.00791 0.04198 0.40758 0.0 -0.0 1.0 255 0 0
-0.0055 0.0427 0.40771 0.0 -0.0 1.0 255 0 0
-0.00706 0.04517 0.40779 0.0 -0.0 -1.0 255 0 0
-0.00231 0.039 0.40557 0.0 -0.0 1.0 255 0 0
-0.00264 0.03656 0.40568 0.0 -0.0 1.0 255 0 0
-0.00516 0.03904 0.40543 0.0 -0.0 1.0 255 0 0
-0.00672 0.03563 0.40564 0.0 1.0 -1.0 255 0 0
-0.00476 0.03715 0.40541 0.0 0.0 1.0 255 0 0
-0.00508 0.03946 0.40546 0.0 -0.0 1.0 255 0 0
-0.00519 0.03698 0.40546 0.0 -0.0 1.0 255 0 0
-0.00712 0.03535 0.40539 0.0 1.0 -1.0 255 0 0
-0.00456 0.04584 0.40768 0.0 0.0 1.0 255 0 0
-0.00292 0.03617 0.40562 0.0 -0.0 1.0 255 0 0
-0.00465 0.03994 0.40549 0.0 -0.0 1.0 255 0 0
-0.00515 0.04621 0.40743 0.0 0.0 1.0 255 0 0
-0.00154 0.04281 0.40551 1.0 -0.0 1.0 255 0 0
-0.00805 0.03643 0.40554 0.0 0.0 -1.0 255 0 0
-0.00545 0.03614 0.40545 0.0 -0.0 1.0 255 0 0
-0.00232 0.04029 0.40548 0.0 -0.0 1.0 255 0 0
-0.00405 0.036 0.40566 0.0 -0.0 1.0 255 0 0
-0.00217 0.04177 0.40539 1.0 -0.0 1.0 255 0 0
-0.00171 0.03774 0.40561 0.0 0.0 1.0 255 0 0
-0.00127 0.04322 0.40553 1.0 -0.0 1.0 255 0 0
-0.00786 0.04483 0.40769 0.0 -0.0 -1.0 255 0 0
-0.0018 0.04214 0.4053 1.0 -0.0 1.0 255 0 0
-0.00563 0.04594 0.40755 0.0 -0.0 -1.0 255 0 0
-0.00659 0.03848 0.40557 0.0 -0.0 1.0 255 0 0
-0.00854 0.03685 0.40561 0.0 0.0 -1.0 255 0 0
-0.00257 0.0428 0.40555 1.0 -0.0 1.0 255 0 0
-0.0084 0.04257 0.40765 0.0 -0.0 -1.0 255 0 0
-0.00366 0.04076 0.40537 0.0 -0.0 1.0 255 0 0
-0.00639 0.03747 0.40553 0.0 -0.0 1.0 255 0 0
-0.01225 0.03757 0.40539 1.0 1.0 -1.0 255 0 0
-0.00279 0.03561 0.40546 0.0 0.0 -1.0 255 0 0
-0.00679 0.0374 0.40556 0.0 0.0 1.0 255 0 0
-0.00094 0.04429 0.4053 1.0 -1.0 0.0 255 0 0
-0.0062 0.03919 0.40558 0.0 -0.0 1.0 255 0 0
0.00348 0.04445 0.40536 1.0 1.0 -0.0 255 0 0
-0.00499 0.04589 0.40765 0.0 0.0 1.0 255 0 0
0.00416 0.04488 0.40532 1.0 1.0 -0.0 255 0 0
-0.00434 0.0406 0.40553 0.0 -0.0 1.0 255 0 0
